# .PCD v0.7 - Point Cloud Data file format
VERSION 0.7
FIELDS x y z rgb
SIZE 4 4 4 4
TYPE F F F U
COUNT 1 1 1 1
WIDTH 1165
HEIGHT 1
VIEWPOINT 0 0 0 1 0 0 0
POINTS 1165
DATA ascii
0.36526772 0.074341595 1.0194792 9145483
0.37519133 0.075093009 1.0187845 9211533
0.38481587 0.075310819 1.0180728 9277327
0.39462888 0.07525564 1.017327 9409427
0.40310252 0.074878708 1.0184426 9541014
0.36768517 0.081264935 1.0198061 9211275
0.37539205 0.084833913 1.0194863 9277326
0.3850908 0.085474193 1.0188003 9211277
0.39491636 0.085412815 1.018068 9409170
0.40247422 0.084816299 1.0191801 9474964
0.37871695 0.092302747 1.0197847 9211276
0.38534105 0.094726436 1.0194622 9277070
0.39503798 0.094537124 1.0187892 9343120
0.40134001 0.094126023 1.0196081 9343119
0.38733041 0.1021229 1.0198565 9277327
0.39467931 0.10468829 1.0195 9277326
0.40018585 0.10119653 1.0197926 9408914
0.39594528 0.11194428 1.0199281 9277327
0.35580072 -0.12416178 1.0271205 9211276
0.36499298 -0.1238208 1.0243003 9408398
0.37452999 -0.12318174 1.0235969 9474447
0.38477769 -0.12272315 1.0228542 9540241
0.39465919 -0.12263976 1.0221592 9540241
0.40458399 -0.12257338 1.021606 9474705
0.41471115 -0.12251607 1.0249872 9737878
0.42337853 -0.12255684 1.0292073 9869721
0.3549625 -0.11488416 1.0267985 9013897
0.36482146 -0.11545036 1.0238191 9145483
0.37472585 -0.11537187 1.0231229 9145483
0.385012 -0.11508407 1.0223876 9145483
0.39481959 -0.11541146 1.0217222 9211276
0.40441826 -0.11515363 1.0211878 9277326
0.41538617 -0.11517254 1.0250049 9540757
0.4232159 -0.11508542 1.0288121 9870237
0.349332 -0.10270107 1.0293415 8750725
0.35516548 -0.10505509 1.0257603 9013897
0.36509788 -0.1049738 1.0231825 9145483
0.37492511 -0.1054092 1.0225219 9145483
0.38529462 -0.10508108 1.0217786 9211276
0.39516571 -0.10500976 1.021085 9211276
0.40419072 -0.10496122 1.020613 9211533
0.41466638 -0.10500193 1.0242242 9474963
0.42378804 -0.10442965 1.0286393 9804444
0.3487111 -0.094681285 1.0289713 8816518
0.35503876 -0.095233552 1.0249196 9079690
0.36530268 -0.095016152 1.0225813 9211276
0.37519515 -0.094951607 1.0218866 9145483
0.38507384 -0.094887167 1.0211931 9211276
0.39493957 -0.094822809 1.0205007 9277070
0.40406001 -0.095876031 1.0202819 9342863
0.41470233 -0.095131576 1.0238239 9540757
0.42408925 -0.095208205 1.0283958 10067874
0.34803271 -0.084776334 1.0284542 8816776
0.35477585 -0.085000187 1.0241599 9145484
0.36509326 -0.08482036 1.0219951 9277070
0.37498018 -0.084762774 1.0213012 9145483
0.38485336 -0.084705301 1.0206085 9277070
0.39280942 -0.086928621 1.020184 9343120
0.40933353 -0.085642047 1.0208092 9343120
0.41563395 -0.084974051 1.0238475 9540757
0.42408136 -0.08467871 1.0279461 9936288
0.34703484 -0.074933626 1.0281587 8816519
0.35451981 -0.074782915 1.02342 9079947
0.36488405 -0.074635908 1.0214095 9211276
0.37476557 -0.074585266 1.0207167 9145483
0.38252416 -0.075469635 1.020227 9211533
0.40967155 -0.074569777 1.0205052 9540757
0.41541553 -0.074774697 1.0233095 9540757
0.42466682 -0.075104728 1.027826 10002081
0.34621531 -0.064587697 1.0276934 8750725
0.35408381 -0.065166064 1.0228267 9145483
0.36469415 -0.065387577 1.0208777 9211276
0.37383151 -0.066124372 1.020283 9277069
0.38003147 -0.069012977 1.0200205 9343120
0.4095155 -0.067179061 1.0201163 9606550
0.41537595 -0.065252244 1.0228871 9672600
0.42444274 -0.064871304 1.0272839 9936288
0.43017671 -0.061321128 1.0299242 10726835
0.34543297 -0.054531597 1.0272315 8750725
0.35467342 -0.05483254 1.0217763 9079947
0.36427453 -0.056286566 1.0203707 9211533
0.37084609 -0.058893718 1.0200654 9277326
0.41484484 -0.055128034 1.0222 9606807
0.42474183 -0.054408025 1.0269865 10265768
0.43007326 -0.056662042 1.0296766 10792628
0.34535748 -0.045370191 1.0263813 8750982
0.35502598 -0.045465853 1.0208379 9145740
0.36164111 -0.04785078 1.0200574 9277069
0.41517082 -0.04548087 1.0219502 9606807
0.42517769 -0.045389257 1.0268167 10199718
0.33900982 -0.034365918 1.0295769 8487553
0.34508198 -0.035157334 1.0255624 8750982
0.35202882 -0.035352137 1.0209222 9079947
0.4157117 -0.035027113 1.0217711 9804444
0.42495364 -0.035181522 1.0262756 10397355
0.43193087 -0.035298098 1.0296763 11121851
0.3381747 -0.024370924 1.0291566 8422017
0.34480688 -0.024960281 1.0247447 8816518
0.35081476 -0.024861421 1.0206861 9079947
0.41566342 -0.025139809 1.0213292 9870238
0.4247297 -0.024984214 1.0257349 10397355
0.43170261 -0.025066961 1.029132 11122108
0.33770716 -0.013917292 1.0284435 8421760
0.34488595 -0.014990613 1.0237111 8750982
0.35063756 -0.018406237 1.0201707 9079946
0.41757506 -0.014749252 1.0218198 9870237
0.42566323 -0.014806107 1.0257585 10397098
0.43264195 -0.014855161 1.0291568 11056058
0.33727551 -0.0044595092 1.0278041 8487553
0.34474891 -0.0048111272 1.0228021 8816518
0.41752595 -0.0048702573 1.0213778 9738394
0.42543912 -0.0046246652 1.0252184 10199718
0.4324134 -0.0046399799 1.0286132 10858421
0.33645603 0.0046338923 1.027462 8487553
0.34401214 0.004610938 1.0223719 8882311
0.41830611 0.0046065385 1.0213562 9672601
0.4252356 0.0046217451 1.0247281 10133668
0.43320078 0.0049046315 1.0285923 10595248
0.33553186 0.014956458 1.0270696 8487810
0.3429881 0.014751497 1.0220647 8882311
0.41808689 0.014733806 1.0208207 9606807
0.4250119 0.01478242 1.0241889 10133668
0.43314472 0.01483951 1.0281445 10331562
0.33532679 0.025011308 1.026848 8553346
0.34286776 0.024886038 1.0217062 8882568
0.41847154 0.025652627 1.0207969 9672600
0.42487389 0.024938364 1.0238564 10001824
0.43353906 0.024930967 1.028043 10660784
0.33571371 0.034994431 1.0271964 8487554
0.3430357 0.035042007 1.0222067 8882312
0.41776553 0.035566695 1.0213848 9606807
0.42534253 0.035138059 1.0249854 10199717
0.43296912 0.034704782 1.0286096 10397354
0.33642048 0.045412969 1.0273536 8553346
0.3438327 0.045342725 1.022295 8816775
0.4161858 0.045291685 1.0216421 9606808
0.42494264 0.045502108 1.0258774 10133925
0.43205503 0.044877175 1.0292339 10594735
0.33669686 0.054545771 1.0277253 8487553
0.34428087 0.055019531 1.0225829 8816775
0.41485018 0.055099618 1.0220256 9672858
0.42504391 0.054500733 1.0268675 10331562
0.43104938 0.054809883 1.0297892 10924472
0.33749962 0.064904712 1.0278133 8553346
0.34472683 0.065278538 1.0229083 8948104
0.35122791 0.068405122 1.0201035 9145483
0.40937456 0.065979041 1.0205292 9606808
0.41563857 0.065048702 1.0234455 9936031
0.42447767 0.06469395 1.0276613 10463405
0.43019202 0.060394127 1.0299609 10858422
0.33766142 0.074727416 1.0283055 8553603
0.34503999 0.074894212 1.0233092 8948104
0.35445991 0.075172544 1.0203574 9145483
0.36163458 0.078216128 1.020039 9211276
0.40757179 0.075192474 1.0206257 9606807
0.4148002 0.074830472 1.0240655 10067875
0.42385346 0.074883714 1.0284269 10528942
0.33782288 0.084456183 1.0287921 8553603
0.34463745 0.085006692 1.0242409 8882568
0.35510641 0.084486321 1.0209941 9145740
0.36428246 0.08574421 1.0203931 9211533
0.3714591 0.088647164 1.0200642 9343119
0.40684578 0.08529193 1.021333 9606808
0.41481203 0.084770679 1.0251112 10002081
0.42224476 0.084954448 1.0287063 10529199
0.33805358 0.094283938 1.0292377 8619139
0.34481987 0.095220633 1.0247824 8948104
0.35487759 0.094941892 1.021781 9145483
0.36474839 0.094872095 1.0210298 9211276
0.37420923 0.09522631 1.0203407 9211277
0.38004982 0.097543105 1.0200696 9211277
0.40594944 0.095264226 1.0219451 9409171
0.41472855 0.095350847 1.026178 9804445
0.42129478 0.094240114 1.0292208 10265768
0.33891881 0.10492589 1.0293005 8619396
0.34523579 0.10494021 1.0251499 8882568
0.35513204 0.10515685 1.0225136 9145740
0.36500973 0.10507946 1.0217614 9211277
0.37487331 0.10500219 1.02101 9277326
0.38371864 0.1060028 1.0204151 9211533
0.39110962 0.10951069 1.0201145 9277326
0.40511322 0.10526659 1.0225891 9474963
0.41522092 0.10473231 1.0273962 10002081
0.42085093 0.10219349 1.0298393 10463149
0.33907282 0.11426322 1.0297682 8685189
0.34466916 0.11495864 1.0261163 8948105
0.35499215 0.11559632 1.0232927 9145483
0.36527142 0.11530104 1.0224938 9145484
0.37514186 0.11521619 1.0217415 9277327
0.38499725 0.11513148 1.0209903 9343120
0.39473435 0.11548346 1.0204017 9277583
0.40504268 0.11493967 1.0235671 9541014
0.41419822 0.11516225 1.0279951 9738652
0.34456027 0.12504429 1.0267583 8948105
0.35471874 0.12470654 1.0239842 9145483
0.36500522 0.1244041 1.0231842 9079690
0.37481454 0.12471937 1.0224659 9211277
0.38550615 0.12492786 1.0216731 9342863
0.39506763 0.12512498 1.0211582 9408914
0.4047997 0.12476715 1.0244783 9474964
0.41266209 0.12496492 1.0282817 9672858
0.34494621 0.13486348 1.0271544 8948105
0.35497364 0.1349649 1.0247197 9145740
0.36487323 0.13486539 1.0239642 9079690
0.37475759 0.13476603 1.0232099 9211533
0.38481224 0.13485111 1.0224559 9343120
0.39513779 0.13554965 1.0221597 9343121
0.40516737 0.13489495 1.0257148 9474964
0.41202676 0.13417977 1.0289401 9672858
0.34551492 0.14510721 1.0274487 8882311
0.35522896 0.14523759 1.0254567 9013897
0.36513531 0.14513041 1.0247 9079690
0.37502664 0.14502339 1.0239446 9145483
0.38490394 0.14491655 1.0231899 9211276
0.39417949 0.14471246 1.0227519 9342863
0.405074 0.14534824 1.0267634 9540757
0.4114632 0.14303741 1.0295955 9804444
0.34587169 0.15485582 1.0278964 8882568
0.35513422 0.1543927 1.0261377 9013897
0.36497885 0.15468778 1.0254153 9013897
0.37550062 0.15501857 1.0246443 9145482
0.38518038 0.15518148 1.0239244 9211276
0.394306 0.15513743 1.0236324 9277070
0.40455139 0.15453917 1.0274733 9474964
0.34685591 0.16508241 1.0280604 9013897
0.35481501 0.1649019 1.0269355 9145226
0.36473557 0.16478005 1.0261766 9145483
0.37465236 0.1650593 1.0254475 9276812
0.38471672 0.16559888 1.0247265 9277069
0.3946822 0.16545229 1.0246073 9343119
0.40375054 0.16445792 1.0281258 9474964
0.36490262 0.17133789 1.0266467 9408912
0.37481341 0.17121129 1.0258882 9540241
0.38470909 0.1710849 1.0251309 9540241
0.39485776 0.17138167 1.0250629 9606292
0.40372387 0.17107885 1.0288054 9737878
0.33844128 -0.12343398 1.0387194 8158330
0.34544316 -0.12364815 1.034022 8750726
0.35053238 -0.12459274 1.0306854 9079691
0.42825937 -0.12227978 1.0315711 9803928
0.43464276 -0.12164904 1.0346512 10264996
0.44280583 -0.12161648 1.0386227 11187387
0.33788693 -0.11497121 1.0382608 8026743
0.34494868 -0.1146745 1.0334728 8553603
0.35035363 -0.11802382 1.03016 8816775
0.42775801 -0.11490879 1.0310152 10002081
0.4348802 -0.11478566 1.0344763 10726835
0.44313365 -0.11523349 1.0385121 11715019
0.33695051 -0.1050717 1.0379184 8026743
0.34443161 -0.10549404 1.0329186 8553346
0.4281337 -0.10587059 1.0307567 10265511
0.43481049 -0.10509274 1.0324663 10792628
0.44502354 -0.10521699 1.0353305 12966113
0.45571992 -0.10386991 1.0373057 9277327
0.46406075 -0.10406183 1.0392222 8882570
0.33612892 -0.094742291 1.0374563 7961208
0.34356225 -0.095165946 1.0324888 8553603
0.42858636 -0.094828747 1.0305685 10463405
0.43506575 -0.095024548 1.0327032 10463148
0.44541642 -0.095245712 1.0351077 12373205
0.45563701 -0.09468358 1.0374724 9211791
0.46389627 -0.09446688 1.0393784 9277584
0.33525985 -0.084935531 1.0370775 8026744
0.34262866 -0.08472722 1.0320914 8553603
0.4284009 -0.086423732 1.0301224 10331561
0.43508661 -0.084780902 1.0327514 10792885
0.44551572 -0.084993094 1.0353384 13162720
0.45486298 -0.085169464 1.037487 9080205
0.4621599 -0.085307144 1.0391642 9145742
0.3292411 -0.071288735 1.0397916 7631985
0.33454758 -0.075084768 1.0365889 8026744
0.34181598 -0.075623468 1.0317438 8553603
0.43503886 -0.075456008 1.0326364 11056059
0.44561511 -0.074735776 1.0355694 12899804
0.45496464 -0.074890889 1.0377188 8948099
0.46226338 -0.075011984 1.0393968 9079689
0.32879817 -0.064072005 1.0393804 7631985
0.33546874 -0.064864151 1.034963 8158587
0.34187782 -0.066020094 1.0307574 8487810
0.43527302 -0.065469809 1.0325594 10990522
0.44556963 -0.064733446 1.0371199 12900065
0.45502931 -0.068347856 1.0378664 5000003
0.46128443 -0.068442576 1.0393046 5131333
0.32805797 -0.055301834 1.039017 7631984
0.33497021 -0.055052582 1.0343339 8158587
0.34109828 -0.055765722 1.0302742 8487810
0.43588352 -0.054951154 1.0324318 11385796
0.44530854 -0.055195849 1.037029 13427179
0.32726428 -0.044448316 1.0384843 7631984
0.33463225 -0.045114715 1.0335844 8158588
0.43587512 -0.045110647 1.0320112 11451332
0.44507158 -0.04488143 1.0364772 13032166
0.32701692 -0.034391046 1.0376618 7631985
0.33472863 -0.034877047 1.0325124 8224381
0.43645358 -0.034790579 1.0318558 11780555
0.44483477 -0.034577649 1.0359256 13229802
0.45113122 -0.032826874 1.0396739 14937842
0.32633257 -0.02511959 1.0372112 7631985
0.33378151 -0.025395704 1.0322181 8224381
0.43638214 -0.025122486 1.0314116 11319745
0.44461975 -0.025220236 1.0354248 12966373
0.45072818 -0.025301587 1.0387452 14740978
0.32547858 -0.014965587 1.036788 7697521
0.33284363 -0.015292639 1.0318565 8158588
0.43732187 -0.014888059 1.0314358 11648969
0.44438338 -0.014937696 1.0348746 13097959
0.45030165 -0.014979412 1.0377623 14545143
0.31980282 -0.0046897423 1.0396024 7368811
0.32521632 -0.0046732742 1.0359522 7697521
0.33202797 -0.0049181799 1.0313858 8224124
0.4370904 -0.0046502505 1.0308897 11451332
0.44442469 -0.0044881157 1.0344523 13032168
0.45008051 -0.0056145363 1.0372524 13887990
0.31896749 0.0053903116 1.0391738 7368555
0.32497826 0.0046687592 1.035194 7697521
0.33112445 0.0046500885 1.0310537 8158844
0.43767479 0.0040297555 1.0308068 11188159
0.44511455 0.0046653673 1.0344006 12900323
0.3181867 0.015527733 1.0387031 7368811
0.32485887 0.015053032 1.0342531 7698034
0.3303898 0.013327088 1.0306952 8158587
0.43781939 0.014872324 1.030418 10990265
0.44487822 0.014921874 1.0338513 13295078
0.31793743 0.024866916 1.038697 7368811
0.32497999 0.025008863 1.0339032 7763570
0.3300406 0.026961178 1.0305722 8158844
0.43860325 0.025099993 1.0305116 11056059
0.44512948 0.025258506 1.0336826 13097443
0.31862706 0.034674518 1.0388283 7368555
0.32479584 0.034533821 1.0346131 7698034
0.33061787 0.035731249 1.0307165 8224381
0.43728486 0.035801202 1.0308009 10990522
0.4444752 0.034262173 1.0340992 13361129
0.45044294 0.036523614 1.0380878 15003378
0.31893116 0.044249143 1.0392082 7368812
0.32495904 0.044823203 1.035133 7763571
0.33102617 0.045067176 1.0310107 8224638
0.43667561 0.045473073 1.0315194 11319746
0.44453812 0.044828419 1.0352349 13295337
0.31972408 0.055319171 1.0393465 7500142
0.32512242 0.055122606 1.0356535 7829108
0.33146775 0.055230536 1.0313331 8289918
0.43591779 0.055133142 1.0321653 11846605
0.44452903 0.054830313 1.0363669 13361131
0.31985611 0.063783839 1.0397756 7500398
0.32539785 0.064670607 1.0360514 7829364
0.33218253 0.065134563 1.0314531 8355967
0.42837459 0.06969218 1.0300591 11056058
0.4351249 0.065222047 1.0328393 11912398
0.44450042 0.064570434 1.037329 13624558
0.3253271 0.074953511 1.0367301 7829364
0.33254308 0.075631134 1.0318513 8355967
0.42832682 0.075933866 1.0306891 11056315
0.43452367 0.075529248 1.0336283 11649225
0.44269884 0.074876145 1.0374932 13427180
0.32572943 0.085006528 1.0370723 7829621
0.333262 0.084712788 1.031918 8355968
0.42747045 0.085122041 1.0312382 11122108
0.43504333 0.084955193 1.0348644 12176085
0.44240415 0.084904425 1.0384007 13756401
0.32664067 0.094704576 1.037046 7895414
0.33358425 0.095177561 1.0323402 8356224
0.42661867 0.09513481 1.0318758 10924472
0.43516591 0.09489999 1.0359635 12176086
0.44207975 0.093880191 1.0391835 13558766
0.32657987 0.10500915 1.0377192 7895414
0.33435744 0.10524495 1.0324304 8421760
0.42489412 0.10552493 1.0321331 10858678
0.43523496 0.10511629 1.0370656 12439514
0.44182113 0.10130942 1.0398362 13032424
0.32761884 0.1151358 1.0376319 7961208
0.33479849 0.11500486 1.0327283 8487554
0.41928238 0.11620997 1.0305511 9804445
0.42499655 0.11463742 1.0331357 10594992
0.43435106 0.11514063 1.0376712 11781070
0.32699978 0.12461679 1.0386354 7895414
0.33459869 0.12504929 1.0334808 8487810
0.41832477 0.12591201 1.0311053 10068132
0.42550227 0.12503828 1.0343657 10792885
0.43492109 0.12465332 1.0371432 12900063
0.44363794 0.12444336 1.0391463 9079684
0.32775199 0.1345754 1.0387332 7961207
0.33471256 0.13510068 1.0340195 8422017
0.4165042 0.13522665 1.0312037 10002339
0.42472118 0.13535033 1.0347352 10595249
0.43531981 0.13492964 1.0374434 13229027
0.44347906 0.1350127 1.0393237 9409171
0.32810098 0.14530244 1.0391531 7961207
0.3352063 0.14492369 1.0342851 8421760
0.34109762 0.14499021 1.0302722 8750725
0.41558823 0.14535505 1.0318227 10133669
0.42491913 0.14475228 1.0352193 10397355
0.43527246 0.14509039 1.0376381 12307412
0.44305345 0.14487119 1.0394253 9145741
0.32875511 0.15406485 1.0392443 7961209
0.33516398 0.15498073 1.0349308 8422017
0.34126824 0.15529135 1.0307877 8750725
0.40988851 0.15707774 1.0303067 9606551
0.41569597 0.1553366 1.0328536 10002081
0.42488587 0.15434693 1.0354893 10858678
0.43536076 0.15448238 1.0378485 12965855
0.44262761 0.15473218 1.0395267 9145741
0.32918796 0.16506343 1.0396237 8092795
0.33512029 0.16505148 1.0355781 8553347
0.34218037 0.16458188 1.0307354 8816519
0.40806857 0.16638817 1.0304052 9870238
0.41491535 0.16503306 1.0335574 9936288
0.42479286 0.16470106 1.0382749 10858679
0.33999968 0.17046559 1.0325831 9079690
0.34227377 0.17020702 1.0310168 9145740
0.40755939 0.17139161 1.0306836 9869465
0.41526255 0.17170247 1.0344222 9738135
0.42341962 0.17236541 1.038416 9936030
0.32571355 -0.12429126 1.0473809 7434605
0.33315173 -0.12428989 1.0423682 7895157
0.44724533 -0.12237402 1.0408155 11385537
0.450688 -0.12231627 1.0429894 10200234
0.32511693 -0.11478443 1.0468481 7302761
0.33246595 -0.11552253 1.0419681 7697521
0.44787794 -0.1154909 1.040832 12702944
0.45224169 -0.11452693 1.0449417 12174022
0.31913421 -0.10322163 1.0497427 7039587
0.32482314 -0.10462458 1.046047 7303017
0.33185282 -0.10521696 1.041368 7697521
0.44774738 -0.10982483 1.0405287 12900321
0.45012748 -0.10994763 1.0416921 13162974
0.46825227 -0.10322185 1.0402044 9277327
0.4745428 -0.10336528 1.0416501 9211791
0.48506284 -0.10360517 1.0440675 9145998
0.49528202 -0.10352394 1.0464221 9474963
0.50524628 -0.10313045 1.0488179 9672085
0.31866744 -0.094969355 1.0492456 6973795
0.32518747 -0.095202625 1.0448749 7368811
0.33139229 -0.094818175 1.0406557 7697777
0.46833786 -0.094793692 1.0403945 9211791
0.47462967 -0.094925441 1.0418406 9343377
0.48515186 -0.095145777 1.0442591 9277328
0.49554452 -0.095520645 1.0466443 9409171
0.50395387 -0.095304161 1.0485909 9475221
0.31790021 -0.085152797 1.0487974 6974051
0.32469362 -0.085142463 1.0442184 7368811
0.3312217 -0.088200748 1.0401199 7697777
0.46738642 -0.085405767 1.0403655 9211792
0.47472626 -0.085544258 1.0420526 9211534
0.48526067 -0.0848023 1.0444933 9211791
0.49477401 -0.084979862 1.0466802 9277585
0.50328171 -0.085141189 1.0486677 9541014
0.31737044 -0.074380361 1.048095 6974051
0.32510659 -0.075183772 1.0429608 7434604
0.46749112 -0.075098716 1.0405985 9079689
0.47483271 -0.07522054 1.0422863 9145738
0.48536965 -0.07445433 1.0447277 9474704
0.4948853 -0.074610248 1.0469157 9540757
0.50323445 -0.074949667 1.0488805 9738651
0.31704739 -0.064939007 1.0474093 6974051
0.32429838 -0.065048687 1.0425087 7434348
0.45280159 -0.064014062 1.0435234 12830663
0.46707729 -0.068200886 1.0428249 4473661
0.4746232 -0.067668043 1.044253 3684403
0.48543906 -0.067866944 1.0448773 6052948
0.4949562 -0.068009086 1.0470655 7565671
0.50238603 -0.06812004 1.0487739 8882046
0.31620243 -0.055118699 1.0469903 6973795
0.32340944 -0.055469442 1.0421659 7368811
0.45378396 -0.054243099 1.0445403 14212574
0.31567067 -0.044609029 1.0463808 6973795
0.32254133 -0.045357194 1.0417565 7368811
0.45416641 -0.044807341 1.0446864 14541541
0.31508744 -0.034906093 1.0457592 6974051
0.3217344 -0.035226461 1.041304 7368811
0.45504233 -0.0357044 1.0455759 14804454
0.30956367 -0.025561279 1.0494013 6710621
0.31485277 -0.02545318 1.0449804 6974052
0.32102203 -0.025769679 1.040854 7368811
0.45599222 -0.025491098 1.0465251 15001318
0.30880177 -0.014186643 1.0484236 6710621
0.31487975 -0.014870984 1.0439215 7039845
0.32010877 -0.016897582 1.040597 7368811
0.45542851 -0.015087895 1.0452315 15133162
0.30818003 -0.0047274684 1.0479183 6710622
0.31434175 -0.0047063534 1.0432845 7039845
0.45486617 -0.0047096056 1.0439409 15199212
0.30740225 0.0051611895 1.0475014 6710622
0.31368157 0.0044946931 1.0428245 7039845
0.45435628 0.0047026379 1.0427706 15462127
0.30743638 0.015443325 1.046272 6776415
0.31335214 0.014413443 1.0420707 7105382
0.45644879 0.015087864 1.0454006 15198697
0.30760634 0.025477175 1.0459745 6776415
0.31341118 0.025707474 1.0418348 7105638
0.45614347 0.025446806 1.0447013 14474718
0.30716324 0.034707464 1.0468737 6710623
0.31331402 0.034953069 1.0424683 7105382
0.45527309 0.034879681 1.0448748 15198697
0.30711123 0.044413585 1.0475001 6710622
0.31363568 0.04539359 1.0428894 7105382
0.45352635 0.044269454 1.0441039 15264747
0.3072623 0.054835279 1.0480151 6645086
0.3142778 0.055517491 1.0430722 7105639
0.4495829 0.0553766 1.0404319 15003121
0.45317462 0.055975299 1.0458274 15001576
0.3075161 0.064989366 1.0484194 6645086
0.31460017 0.065071017 1.0434384 7105639
0.45178443 0.065083295 1.0455267 14936040
0.30830008 0.074711226 1.0483254 6710623
0.31507415 0.074547529 1.0436965 7171175
0.32006168 0.076965198 1.040444 7434605
0.44871998 0.074319981 1.042789 15068141
0.45333707 0.071928687 1.0491198 14672096
0.30845699 0.085157484 1.0488589 6710622
0.31454745 0.08509656 1.0447023 7105382
0.32046208 0.0860615 1.0407289 7434605
0.44632322 0.086448051 1.0415862 14871535
0.45092148 0.084137909 1.0479052 14606561
0.30880031 0.094888046 1.0492215 6710623
0.31488639 0.095222205 1.0450922 7105382
0.32111606 0.094833001 1.0408207 7434606
0.44665235 0.095828384 1.043997 14608105
0.3095451 0.1050753 1.0493383 6776416
0.31503159 0.10469837 1.0455743 7105639
0.32127833 0.10521462 1.0413467 7434606
0.44443408 0.10517808 1.0428793 14280168
0.30967411 0.1136421 1.0497758 6710880
0.31537154 0.11483878 1.0459644 7105639
0.32221538 0.11554741 1.0413414 7500398
0.44369102 0.11572012 1.0429265 11187383
0.45555291 0.11978235 1.0455108 4539972
0.3151505 0.12523602 1.0467528 7039846
0.32236344 0.1249989 1.04182 7500398
0.44870445 0.12523678 1.0403291 8882306
0.45484743 0.12498891 1.0417383 8421500
0.4642916 0.12470143 1.0444107 7763569
0.4747926 0.12554125 1.046342 8421757
0.48536059 0.12583393 1.0487813 8750979
0.31563053 0.13493749 1.0470202 7039847
0.32333407 0.13510719 1.0417781 7500399
0.44868493 0.13516884 1.0405256 9145998
0.4547933 0.13467866 1.0419222 9211534
0.46436828 0.13469471 1.0441271 9211534
0.47488964 0.13500804 1.046556 9277327
0.48508877 0.13506405 1.0489054 9343378
0.31655073 0.14472727 1.0469931 7105639
0.32331511 0.14524493 1.0424129 7500399
0.44806802 0.14593779 1.0406015 9145998
0.4551802 0.14499517 1.0422201 9211535
0.46447244 0.14508845 1.0443614 9277328
0.47498673 0.14447869 1.04677 9211791
0.48449928 0.14478186 1.0489663 9343635
0.31658822 0.15498798 1.0475968 7105383
0.32426012 0.15531434 1.0423858 7566192
0.44783422 0.15491118 1.0407292 9277327
0.45514387 0.15516242 1.0424173 9277584
0.46457669 0.1554867 1.0445957 9343121
0.47509354 0.15490095 1.0470054 9343121
0.48424903 0.15462573 1.0491079 9540757
0.31744665 0.1649143 1.0476203 7303020
0.32453576 0.1646219 1.0427688 7697779
0.42897767 0.16708596 1.0405378 10990524
0.43476605 0.16468427 1.0431581 12176083
0.48571679 0.16001196 1.0495548 9277327
0.42811179 0.17274678 1.0407135 10264996
0.4350093 0.17223753 1.0443561 11385538
0.31788924 -0.12468415 1.0550578 6776673
0.32122594 -0.12413212 1.0503893 7171175
0.45587042 -0.12131282 1.050596 10264738
0.4611814 -0.12126302 1.0584346 9540756
0.31712058 -0.1148639 1.0545719 6645085
0.45566452 -0.11746871 1.0501213 11777976
0.46086678 -0.1154561 1.0577124 10395552
0.3160978 -0.1055879 1.0544702 6644828
0.51454955 -0.10347898 1.0523626 9803929
0.52416283 -0.10244877 1.0564307 9738135
0.53115958 -0.10263868 1.0593647 9672342
0.31482586 -0.095063448 1.0546126 6579035
0.50873762 -0.094736628 1.0501684 9672858
0.51469809 -0.094961971 1.0526663 9738395
0.52412969 -0.094639115 1.0566382 9672858
0.53033549 -0.094600126 1.0592464 9672601
0.31367445 -0.084478691 1.0544523 6513499
0.50891668 -0.084345348 1.0505379 9738652
0.51487958 -0.084546044 1.0530376 9607065
0.5244751 -0.084868997 1.05706 9738652
0.53050673 -0.085072003 1.0595887 9936288
0.3122409 -0.075206682 1.0552685 6447449
0.50869411 -0.074250579 1.0507303 9738394
0.51504481 -0.075070523 1.0533755 9541015
0.52464402 -0.075357378 1.0574005 9672601
0.53066087 -0.076491505 1.0598965 9738652
0.30931315 -0.062054124 1.0582647 6184277
0.31186724 -0.066321127 1.054002 6513242
0.45810562 -0.064495727 1.0513755 10198428
0.46404165 -0.065500192 1.0557871 5592661
0.50657058 -0.066636197 1.0539238 4539713
0.51517707 -0.067485906 1.0536458 8487288
0.52477914 -0.067743853 1.0576731 8816511
0.30899149 -0.054360807 1.0571643 6184277
0.31139508 -0.055065393 1.0523952 6579036
0.4576917 -0.056856647 1.0504255 12698306
0.46291009 -0.054404736 1.0580208 11119530
0.30806881 -0.044535778 1.0568088 6184277
0.31058738 -0.045228045 1.0518012 6579036
0.46238413 -0.044809218 1.0568187 12763842
0.30797681 -0.034891982 1.0547913 6315863
0.31008381 -0.037930861 1.0511645 6644828
0.46185952 -0.035235506 1.0556197 13619151
0.30647042 -0.025193514 1.0556622 6184277
0.46133637 -0.025683504 1.054424 14013909
0.30581969 -0.014786979 1.0546159 6250070
0.46076238 -0.015201663 1.0531121 14342874
0.30453509 -0.0047594351 1.0549567 6184277
0.45998183 -0.00094841613 1.0513282 14671839
0.46249032 -0.0044829026 1.055189 14145495
0.30342236 0.0047605867 1.0550611 6118484
0.45967039 0.0047380142 1.0506164 14737633
0.46506509 0.0047739269 1.0585812 13750737
0.3026019 0.015010444 1.0544198 6184020
0.46453691 0.014307251 1.057379 13882323
0.30233437 0.025409611 1.0543946 6118484
0.46418583 0.024782807 1.0565797 13290186
0.30254993 0.035203319 1.0546719 6118484
0.45971245 0.031279404 1.0507125 14540254
0.46234885 0.034903016 1.0552822 14013909
0.30267668 0.044736382 1.0551137 6118484
0.45796075 0.046461027 1.051043 14671839
0.4626717 0.043884628 1.0574762 13882323
0.30291897 0.054785348 1.0553545 6118484
0.45842728 0.054151796 1.053201 14342874
0.46045285 0.057199582 1.0567625 13882323
0.30297688 0.065399595 1.0560189 6118484
0.4571082 0.065576449 1.0534484 14211288
0.46136585 0.061133839 1.0588579 13553358
0.30427372 0.075119279 1.0540515 6315607
0.45713478 0.075483553 1.0553839 13816530
0.30440113 0.084663436 1.0544931 6250071
0.45625114 0.084776953 1.0558637 13487565
0.30491242 0.095032491 1.0543456 6315864
0.45388854 0.093503416 1.0540601 13487565
0.30519688 0.10518752 1.0546947 6315864
0.45294166 0.10466778 1.0548049 12369084
0.30563447 0.11527458 1.0547194 6316120
0.44829908 0.11847228 1.050621 10067100
0.45272607 0.11532979 1.0565288 9606292
0.30682445 0.1247177 1.0537004 6447450
0.46890599 0.12030517 1.0500741 3421233
0.4745076 0.1205245 1.0519885 3289646
0.48463979 0.12092122 1.0554512 3355182
0.49462616 0.12527025 1.0520334 8422015
0.50418073 0.12556911 1.0545027 9079686
0.51291281 0.12578601 1.0581775 8882305
0.3066909 0.13467789 1.0542595 6447450
0.31043404 0.13791791 1.0507463 6776416
0.48973015 0.13829905 1.0500395 9343378
0.49522027 0.13535528 1.0513499 9607065
0.50418347 0.134909 1.0547687 9541272
0.51269579 0.13461837 1.0583366 9541015
0.30637988 0.14514266 1.0553479 6381657
0.3109358 0.14504075 1.050841 6776417
0.48980045 0.14495078 1.0501903 9475221
0.49518663 0.14514068 1.0515659 9607065
0.50468677 0.14538057 1.0552768 9672858
0.51273155 0.14488134 1.0586424 9738652
0.30663615 0.15522532 1.055634 6381658
0.31108004 0.15459219 1.0513283 6776673
0.48955378 0.15507789 1.0503384 9540756
0.49531689 0.15466762 1.0518421 9606550
0.50468332 0.15521345 1.0555539 9870237
0.51244521 0.1548948 1.0588059 9738394
0.30690953 0.16435713 1.0558461 6513245
0.3119033 0.16435282 1.0513655 6908261
0.44486323 0.16487947 1.0544518 10922153
0.48889962 0.16012403 1.0502899 9343119
0.49539509 0.160386 1.0520082 9606291
0.50478071 0.16095765 1.0557578 9606292
0.51195771 0.16141936 1.0587862 9408912
0.44478071 0.17238951 1.0557679 9738136
0.31309614 -0.12462284 1.0648228 5987157
0.46657228 -0.12121271 1.0663912 8422018
0.30966988 -0.11383566 1.0693831 5460297
0.31246132 -0.11506699 1.0639379 5921105
0.46625155 -0.11536177 1.0656582 9474450
0.3093037 -0.10502938 1.0681186 5526347
0.31168786 -0.10453732 1.0631146 5986641
0.53699219 -0.10230239 1.0618247 9803929
0.54553306 -0.1024547 1.0654087 9935515
0.55339706 -0.10219516 1.0687201 9803672
0.30844593 -0.09499681 1.067582 5526347
0.310772 -0.095353484 1.0628915 5921105
0.535483 -0.095031977 1.0613968 9738651
0.54514205 -0.094994821 1.065456 10002082
0.55352336 -0.095467977 1.0689639 9936031
0.30818465 -0.085006773 1.0658315 5657933
0.31091729 -0.086100802 1.0604762 6118484
0.5353567 -0.085235246 1.0616217 10068132
0.54443944 -0.085803024 1.0654216 10002339
0.55284017 -0.084999435 1.0689739 10002339
0.30744684 -0.074941181 1.0650417 5723725
0.53539759 -0.075116374 1.0619254 10002081
0.54408199 -0.074978806 1.0655783 10002081
0.55133599 -0.074755318 1.0686322 10068132
0.30641463 -0.06462986 1.0647998 5723469
0.4688502 -0.063540824 1.0671967 8356484
0.48915729 -0.066571705 1.0694979 1907995
0.49473217 -0.066285603 1.0649018 1710616
0.5002712 -0.066001356 1.0603352 1710616
0.53485376 -0.066792138 1.0634818 7040103
0.54424083 -0.06634701 1.0658896 8882305
0.55160123 -0.066539176 1.0689768 9145219
0.30540222 -0.054743916 1.0646147 5657933
0.46836701 -0.05482002 1.0660969 9474707
0.30403805 -0.045163803 1.0652208 5526348
0.46783128 -0.045150924 1.0648776 11316396
0.30339915 -0.035526253 1.0643263 5592140
0.46729678 -0.035503916 1.0636609 12303291
0.299851 -0.023140259 1.0687706 5197383
0.3021329 -0.025357332 1.0645969 5526347
0.46671024 -0.024918044 1.0623258 12895428
0.47194812 -0.02026771 1.0698546 11842997
0.29911345 -0.013626984 1.0681069 5197383
0.30175793 -0.01482591 1.0629568 5592140
0.4661251 -0.01435791 1.0609939 13290186
0.471623 -0.01446785 1.0691177 12105913
0.29849252 -0.0048154243 1.0673646 5262919
0.30092767 -0.0047928607 1.0623642 5657676
0.46575356 -0.0076510906 1.0601482 13487565
0.47108197 -0.004817673 1.0678912 12434877
0.2980698 0.005527928 1.0658652 5263175
0.30065268 0.0019148674 1.0613935 5657933
0.47054225 0.0048103882 1.0666677 12632513
0.29770809 0.0144045 1.0645759 5394504
0.46984243 0.017294703 1.0650812 12829635
0.47011128 0.012497553 1.0656909 12829635
0.29759571 0.024960587 1.0641738 5394760
0.46955171 0.024005532 1.0644222 12303291
0.47014683 0.029804811 1.0657713 12303548
0.29773408 0.035537008 1.0646688 5394505
0.46651056 0.037360433 1.0618714 13224393
0.47108734 0.033719193 1.0679034 12369084
0.29786 0.04516061 1.065119 5394505
0.46761486 0.045800671 1.0651106 12829635
0.29798603 0.054792356 1.0655699 5394505
0.46596786 0.054085534 1.0642748 12895428
0.2982057 0.064216398 1.0658114 5328969
0.30000925 0.069970205 1.0625018 5657933
0.46524736 0.064656809 1.0652391 12632256
0.29825392 0.075045295 1.0665115 5328969
0.30068761 0.07565131 1.0615168 5723726
0.46368018 0.074931011 1.0649016 12500670
0.29839295 0.085668311 1.0670086 5328968
0.30081439 0.085263327 1.0619644 5723726
0.46289733 0.084173061 1.0655196 12040119
0.29851943 0.095334314 1.0674608 5328968
0.30094129 0.094883442 1.0624125 5723726
0.45874527 0.095773838 1.0616355 11974326
0.46350828 0.093473852 1.0681981 11053481
0.29864603 0.10500852 1.0679135 5328968
0.30106831 0.10451169 1.0628607 5723726
0.45809051 0.10445255 1.0623341 10658723
0.46103674 0.10587723 1.0669384 9540499
0.29877272 0.11469094 1.0683665 5328968
0.30125719 0.1146611 1.0632198 5723726
0.45769057 0.11575894 1.0629996 8027260
0.46225271 0.11691264 1.065313 6184798
0.29929686 0.12363592 1.0679421 5394761
0.30169147 0.1256358 1.0631312 5789519
0.46680802 0.12006369 1.0647339 4144956
0.47476053 0.12037466 1.0674915 3552562
0.48160386 0.12064224 1.0698645 3092267
0.49824885 0.12145413 1.0601027 3420975
0.50510597 0.12172315 1.0624509 3421231
0.51753902 0.12504473 1.0625926 7303277
0.52545136 0.12599038 1.0644327 8487807
0.53518915 0.12671103 1.0675625 9540495
0.2996479 0.1348902 1.0680467 5394761
0.30207664 0.13521692 1.0630416 5789520
0.51870823 0.13494083 1.0608717 9738394
0.5259648 0.13533001 1.0639312 9936289
0.53591514 0.13533582 1.0681118 10002338
0.29978776 0.14555643 1.0685451 5394761
0.30220416 0.14486791 1.0634906 5789519
0.51766986 0.14448851 1.0607059 9870495
0.52492476 0.14490531 1.0637658 10002082
0.53546345 0.1451878 1.0682015 10002338
0.29991502 0.15526178 1.0689987 5394761
0.30241182 0.15486576 1.0637993 5789519
0.51690406 0.15577903 1.0607045 9738393
0.52488995 0.15437829 1.0640199 9804187
0.53452748 0.15537126 1.0680972 10133668
0.29999143 0.16108865 1.0692711 5394762
0.30200651 0.1643395 1.0653384 5855315
0.44898546 0.16848969 1.0612038 10198173
0.45368716 0.16664222 1.0677632 9211277
0.51676691 0.16172874 1.0608156 9408913
0.52400064 0.16123028 1.0638407 9606549
0.53373003 0.16185248 1.0679461 9738135
0.4496555 0.17161693 1.0627875 9343120
0.45234969 0.17227137 1.0668741 8487811
0.30784622 -0.12493746 1.0756657 5000262
0.31015947 -0.12561038 1.0710738 5460814
0.4720448 -0.1211614 1.0744684 7698810
0.30693334 -0.11544108 1.0753648 4933954
0.47177234 -0.11624836 1.0738482 8290691
0.30604255 -0.10515935 1.0748391 4934210
0.55833155 -0.10239287 1.0707877 9935772
0.56462353 -0.10265849 1.0735656 10067359
0.57245201 -0.10154296 1.077885 10199203
0.30464572 -0.094836101 1.0753419 4868418
0.55845916 -0.095652714 1.0710323 10002081
0.56480485 -0.094940744 1.0739102 10331561
0.57232934 -0.094821222 1.0780475 10595249
0.30381706 -0.084621191 1.0747038 4934210
0.5583818 -0.084675387 1.0713112 10199976
0.56505436 -0.084321447 1.0743846 10265770
0.57190114 -0.08461757 1.0781581 10595250
0.3025628 -0.074673384 1.0750002 4868418
0.55638826 -0.074377969 1.0707657 10397355
0.56398565 -0.074615963 1.0741926 10331562
0.57215285 -0.074924335 1.0786326 10397612
0.29901513 -0.063309729 1.0796777 4407868
0.30185446 -0.065274112 1.0743018 4933954
0.47578815 -0.065058611 1.0763551 6053727
0.48422983 -0.06682457 1.0735602 2171167
0.52626538 -0.065055706 1.0763412 1579030
0.53172231 -0.064773515 1.0716723 1776409
0.55653358 -0.066667944 1.0710454 9672079
0.56478095 -0.066368915 1.0751783 9014667
0.57237947 -0.066193253 1.0790601 9672594
0.29913023 -0.054676685 1.0774654 4605246
0.30148128 -0.055653583 1.0728658 5000004
0.47390875 -0.055241786 1.0742991 8422533
0.2983771 -0.045381747 1.0768831 4605246
0.30099002 -0.046082992 1.0716835 5065797
0.47336254 -0.045497902 1.073061 9869207
0.29765999 -0.034942683 1.0759655 4671039
0.3003642 -0.035735663 1.0705998 5131589
0.47483662 -0.034412831 1.0747466 10264737
0.29691359 -0.024524167 1.0751127 4671039
0.47501612 -0.025202025 1.0746038 10659494
0.29592699 -0.014542838 1.0748527 4671039
0.47720566 -0.014579485 1.0773665 10330788
0.29479358 -0.0048496984 1.0749599 4605246
0.47665405 -0.0048548086 1.0761211 10791338
0.2936587 0.0048508942 1.0750682 4539453
0.47610369 0.0048474111 1.0748787 11251632
0.29277399 0.014541015 1.0746659 4539453
0.47555465 0.014527252 1.0736392 11449010
0.29276806 0.024501095 1.074137 4604990
0.47509688 0.024190111 1.0726057 11119275
0.29273561 0.035121869 1.0749886 4539453
0.47575429 0.035887782 1.0751799 10988460
0.29295108 0.045592964 1.0753162 4605246
0.47393131 0.04555558 1.0743502 11251888
0.29307625 0.055317141 1.0757754 4604990
0.47305331 0.054990482 1.0748655 10922668
0.29382107 0.064969592 1.0749464 4605503
0.46846929 0.068580039 1.070727 11711412
0.47309652 0.065091118 1.0768623 10527910
0.2945635 0.074611641 1.0741214 4736832
0.46941081 0.072590597 1.072879 11250861
0.47059244 0.077623986 1.0755796 10658980
0.29478085 0.084600061 1.0744095 4736832
0.46715546 0.086081706 1.0721455 10921895
0.47178045 0.08268448 1.0782949 9869979
0.29485416 0.094806112 1.0750116 4736832
0.46779111 0.095439494 1.0748712 9737878
0.2949273 0.10502466 1.0756152 4736576
0.46630725 0.10567436 1.0746486 8619654
0.47046119 0.10032609 1.0797322 8356740
0.29518187 0.11487539 1.0758159 4736575
0.46488556 0.11500616 1.0743448 7698811
0.29635605 0.12520476 1.0741475 4868418
0.48618641 0.12082145 1.0714536 2829095
0.49423778 0.12113627 1.0742456 2631460
0.50465345 0.12154397 1.0778611 2565923
0.52817047 0.12262825 1.0703509 3815989
0.53516138 0.12290259 1.0727454 3947575
0.5454281 0.12582764 1.0729573 8224377
0.5550974 0.12648335 1.0768796 9014666
0.5621289 0.12664954 1.0799396 9935508
0.29657668 0.13472244 1.0743939 4868418
0.54547995 0.13443536 1.0721049 10199976
0.55555671 0.13500372 1.076637 10331819
0.29679459 0.14472954 1.074682 4868418
0.53959954 0.14865535 1.0700377 9936289
0.54544425 0.14467123 1.0723802 10068389
0.55578196 0.14477488 1.0770735 10331563
0.29686904 0.15497187 1.0752845 4868161
0.5397228 0.15544815 1.0702822 10133668
0.54608715 0.15530756 1.0729523 10002081
0.55498499 0.15422904 1.0769427 10331562
0.56011593 0.15585855 1.0798153 10529199
0.29692376 0.16424856 1.0758564 4934470
0.45890871 0.16687638 1.0754855 8093054
0.53984618 0.1622436 1.070527 9803672
0.54599786 0.16263701 1.0731226 9803929
0.55482984 0.16227031 1.0771141 10199202
0.45732728 0.17149115 1.0740435 8027517
0.46029928 0.17322093 1.0787444 6974831
0.30420989 -0.13009618 1.0843071 4276544
0.30336821 -0.12477414 1.0848156 4013368
0.29977146 -0.11302892 1.0895064 3289645
0.30249807 -0.11481339 1.0843209 3947574
0.29945043 -0.10505414 1.0883396 3486767
0.30184999 -0.10485293 1.0833706 4078903
0.57840574 -0.10144042 1.081228 10264995
0.58539402 -0.10180701 1.0851351 9935516
0.59244913 -0.10119778 1.0891135 10001309
0.29847801 -0.094767712 1.0879802 3486767
0.30090901 -0.094768211 1.0829928 4078903
0.57756114 -0.093863085 1.0810151 10661042
0.58557588 -0.094983794 1.0854723 10463405
0.59260738 -0.095327877 1.0894045 10529198
0.29854861 -0.084922425 1.0855817 3749939
0.3009173 -0.087301672 1.0812665 4276282
0.57744926 -0.084861174 1.081262 10595249
0.58508277 -0.085541926 1.0855207 10397613
0.5916692 -0.085206673 1.0892268 10331819
0.29762667 -0.075388238 1.0852909 3749939
0.57770407 -0.075140134 1.0817392 10331819
0.58469009 -0.075411692 1.0856488 10529199
0.59031123 -0.075630203 1.0887945 10463663
0.2967498 -0.065678351 1.0848672 3815732
0.51451522 -0.065663047 1.0863895 1315858
0.52076864 -0.065339953 1.0810441 1447444
0.55847853 -0.063798234 1.0880145 1776152
0.56384724 -0.063518807 1.0832493 1973788
0.57793367 -0.06638398 1.0821692 9606545
0.58492327 -0.066623993 1.0860816 9936025
0.59054732 -0.066817112 1.0892301 10133662
0.29548606 -0.055518627 1.0851347 3750195
0.2942695 -0.044833381 1.0851847 3749939
0.47875693 -0.041927796 1.0808687 8686476
0.29348928 -0.034729622 1.0844729 3815731
0.4785347 -0.038010184 1.080367 8949649
0.28985086 -0.022598894 1.0891608 3223595
0.29229981 -0.024584435 1.0845912 3749939
0.28954059 -0.014723453 1.0879948 3355437
0.29188809 -0.015109192 1.0832672 3881525
0.28851834 -0.0049078446 1.0878454 3289645
0.29104754 -0.0048844079 1.0826519 3881525
0.28824842 0.0056505771 1.0859834 3421231
0.29062757 0.0025376563 1.0818151 3881781
0.28774714 0.014680257 1.0849555 3552560
0.28767443 0.024462949 1.0846817 3552816
0.28779837 0.034262754 1.0851488 3552560
0.28804404 0.044595368 1.0854039 3618353
0.47860381 0.041914385 1.080523 9542560
0.28824356 0.054674976 1.0857353 3618353
0.29001319 0.059565 1.0824322 4013110
0.47680816 0.057529002 1.0808718 9147544
0.28819883 0.065678582 1.086641 3487024
0.29064974 0.065805405 1.081575 4078903
0.28832322 0.075513877 1.0871099 3552560
0.29083857 0.075150207 1.0818746 4079159
0.4747712 0.072142318 1.0806742 9409944
0.28844774 0.085357681 1.0875794 3487023
0.29096356 0.084946416 1.0823394 4078903
0.47297406 0.087768875 1.081023 8883856
0.28857237 0.095209971 1.0880492 3486767
0.29108867 0.09475106 1.0828048 4078903
0.28876179 0.10461764 1.088352 3421231
0.29121387 0.10456413 1.0832705 4013110
0.47117579 0.10340554 1.0813723 7699068
0.28945428 0.11480085 1.0876704 3552560
0.29166177 0.11513287 1.0831239 4078903
0.46901715 0.11798641 1.0808939 6053726
0.28957933 0.12466669 1.0881402 3552560
0.29210171 0.12504706 1.0829455 4078903
0.47501841 0.12022024 1.0834575 3881783
0.48429197 0.12058236 1.0867209 2763559
0.49128219 0.12085533 1.0891809 2697509
0.51513898 0.12195481 1.0815045 2631459
0.52452064 0.12232248 1.084765 2631715
0.53395903 0.12269237 1.0880451 2697508
0.55867547 0.1238251 1.0807976 4473918
0.5653134 0.12665945 1.0823035 8027513
0.57461125 0.1264922 1.0869592 8948098
0.2897045 0.13454106 1.0886108 3487024
0.29223144 0.13520207 1.0834271 4078903
0.56511664 0.13566691 1.0819257 10331819
0.57460552 0.13464805 1.0872132 10463405
0.28982979 0.14442399 1.0890814 3552560
0.29228264 0.14534791 1.0840706 4013110
0.56536621 0.14549136 1.0824037 10661042
0.57401299 0.14454353 1.0872213 10397612
0.28994262 0.15332581 1.0895056 3486767
0.29233608 0.15571176 1.0847256 3947574
0.56561625 0.15532449 1.0828822 10726835
0.57393402 0.15501031 1.0875372 10463148
0.29223886 0.16395664 1.085536 4078905
0.46444201 0.16817738 1.0838702 6580845
0.56440967 0.16209593 1.0824387 10331046
0.57452679 0.16252686 1.0881288 10198945
0.29893428 -0.12477406 1.0948449 2631716
0.30025437 -0.125025 1.0912616 3158060
0.29830027 -0.11564433 1.0939506 2697253
0.30001268 -0.11902142 1.0903832 3223852
0.29739031 -0.10504797 1.0934124 2763301
0.59669518 -0.10141837 1.0914875 9935515
0.6061154 -0.10151255 1.0967681 9869978
0.29619041 -0.096041374 1.0934471 2697509
0.59685498 -0.095535733 1.0917798 10463148
0.60549682 -0.095205843 1.0966387 10397354
0.29514295 -0.084990382 1.0937028 2697509
0.59674478 -0.085351773 1.0920688 10266026
0.60472769 -0.085020497 1.096558 10397613
0.61008906 -0.082337104 1.0996577 10397613
0.29383615 -0.074938461 1.0930247 2763045
0.59615791 -0.075488359 1.0920792 10199975
0.60457134 -0.074210286 1.0968426 10397356
0.61022627 -0.0773945 1.0999049 10331563
0.29291293 -0.064982556 1.0937965 2697252
0.49898207 -0.066464812 1.0996547 1447444
0.50466996 -0.066171184 1.0947965 1315858
0.54759389 -0.064364731 1.0976756 1381651
0.55305827 -0.064080343 1.0928255 1513236
0.59578621 -0.065175354 1.0937601 7501170
0.60481501 -0.065331474 1.0972847 9672338
0.29164299 -0.053881034 1.09321 2697509
0.28953663 -0.042492956 1.0954064 2368288
0.29092041 -0.045695044 1.0931917 2697509
0.28894973 -0.033895656 1.0944362 2499874
0.29031768 -0.034445528 1.0909147 2960680
0.28814003 -0.024671879 1.0938621 2565667
0.29008406 -0.02851674 1.090037 3092266
0.28741941 -0.014295727 1.0930048 2697252
0.2860288 -0.0049333582 1.093335 2565923
0.28520891 0.0050979345 1.0933518 2565923
0.28394315 0.01478746 1.0928996 2565923
0.28386241 0.024641279 1.0925885 2631716
0.28398561 0.034512632 1.0930626 2631459
0.28410894 0.044392545 1.0935372 2565923
0.28482679 0.055076662 1.093055 2697252
0.28510088 0.06478031 1.0935683 2631716
0.28528294 0.075022124 1.0942674 2631460
0.28548533 0.085282721 1.0950465 2565923
0.28603154 0.095673367 1.0933448 2763302
0.28633383 0.10590665 1.0934749 2828838
0.28691661 0.11535984 1.0929667 2894887
0.28704113 0.12527399 1.0934411 2829095
0.49713388 0.12108386 1.0912405 2697509
0.50536525 0.12140567 1.0941408 2631715
0.514826 0.1217757 1.0974756 2631715
0.52076662 0.12200818 1.0995709 2697508
0.53988487 0.1229246 1.0901046 2828837
0.54583764 0.12315789 1.0921733 2828838
0.5554027 0.12353221 1.0954931 2894887
0.56381768 0.12386131 1.0984113 3026473
0.5844146 0.12713206 1.0924568 9409163
0.59291434 0.12768909 1.0972438 9474443
0.28716582 0.13519673 1.0939159 2829095
0.58462316 0.1350646 1.0928466 10199975
0.59312683 0.13565665 1.0976371 10463405
0.28729063 0.14512815 1.0943913 2763302
0.57927573 0.14555678 1.0902082 10595249
0.58488411 0.14498802 1.0933344 10265769
0.59339309 0.14562388 1.0981295 10463662
0.28742036 0.15507087 1.0948859 2763301
0.57950819 0.15447025 1.0906456 10397612
0.58514571 0.15492035 1.0938236 10397356
0.59223366 0.15548627 1.0978191 10331561
0.28767702 0.1637338 1.0951792 2829095
0.29009321 0.16520567 1.0900714 3684147
0.57971501 0.16239905 1.0910348 10264996
0.5853551 0.16287242 1.094215 10264995
0.59244639 0.16346757 1.0982134 10133152
0.29985291 -0.13050076 1.1042849 1381908
0.29920185 -0.12495265 1.1037296 1710616
0.29820389 -0.11469804 1.1055578 1513237
0.29705986 -0.10466073 1.1050243 1579030
0.61462736 -0.10086356 1.101565 10067358
0.6242761 -0.10088263 1.1072211 10198945
0.29591838 -0.09465827 1.1044724 1644823
0.61552984 -0.094466776 1.1022916 10726835
0.62446922 -0.094918557 1.1075637 11253695
0.29491299 -0.084326647 1.1063163 1579030
0.61580735 -0.084560961 1.1027884 10463663
0.62363803 -0.085277088 1.1073797 10924729
0.29363722 -0.074657775 1.1033887 1841945
0.61513156 -0.074280113 1.1027635 10726836
0.62356001 -0.074946567 1.1077262 10990522
0.29276127 -0.063950524 1.1076062 1513237
0.49395344 -0.066724427 1.1039499 1447444
0.5365122 -0.064941496 1.1075116 1447187
0.54276997 -0.064615801 1.1019573 1381651
0.58540219 -0.06282948 1.1055089 1644566
0.59075272 -0.062550291 1.1005965 1842201
0.61489028 -0.065667279 1.1029249 10462629
0.62386751 -0.06598562 1.1082723 11055797
0.29151532 -0.055718888 1.1028924 1776409
0.2906321 -0.044947378 1.1071079 1447444
0.28924862 -0.034834024 1.1033629 1710615
0.28835073 -0.024948094 1.1060189 1513237
0.28713271 -0.014937295 1.1044172 1513237
0.28607383 -0.0049881143 1.1049322 1447444
0.28501299 0.0049936073 1.1054699 1447444
0.28383166 0.014934692 1.1039652 1710616
0.283539 0.024872731 1.1028268 1710616
0.28385621 0.034860428 1.1040606 1513237
0.28417414 0.044870496 1.1052972 1447444
0.28449276 0.054903008 1.1065366 1447444
0.28481215 0.064958051 1.1077788 1447444
0.28513223 0.075035691 1.1090236 1315858
0.28532454 0.081092238 1.1097717 1315858
0.28495866 0.094325185 1.1006248 2039580
0.28527683 0.10437046 1.1018538 1973787
0.28559572 0.11443819 1.1030853 1907738
0.28591529 0.12452845 1.1043198 1776408
0.47998381 0.12024439 1.1015871 3092268
0.48588207 0.12047438 1.1036941 2960938
0.49536282 0.1208441 1.1070811 2894888
0.50131643 0.12107643 1.1092095 2829095
0.52553862 0.12219494 1.101254 2763044
0.53512651 0.12257018 1.1046356 2829094
0.54597938 0.12299491 1.1084635 2960423
0.56864822 0.12405065 1.1000905 3157803
0.57471114 0.12428832 1.1021981 3223852
0.58445644 0.12467034 1.1055861 3487023
0.59525621 0.1258297 1.1053032 5921362
0.60433668 0.12743802 1.1036421 9672077
0.6115948 0.12791513 1.107774 10462369
0.28623563 0.13464133 1.1055568 1644823
0.59878099 0.13405581 1.1007535 10397097
0.60452753 0.13445003 1.1039907 10726835
0.61180919 0.13495812 1.1081622 11122108
0.28655681 0.144777 1.1067977 1579029
0.59905058 0.14405067 1.101249 10331819
0.60480052 0.14447451 1.1044891 10463663
0.61211568 0.14502758 1.1087172 10727350
0.28687912 0.15493563 1.1080425 1447444
0.59791595 0.15494117 1.1009878 10397612
0.60507381 0.15450801 1.1049882 10661042
0.61085814 0.1549644 1.1082522 11056315
0.28716981 0.16409759 1.1091652 1381652
0.59834754 0.16339183 1.1015211 10264996
0.60529262 0.16254112 1.1053878 10660269
0.61111271 0.16303022 1.1087139 10792113
0.29967716 -0.12287813 1.1135143 1052944
0.30021408 -0.12645097 1.1155076 1052687
0.29894346 -0.11474869 1.1157631 855565
0.29780525 -0.10595898 1.1133983 987151
0.63219154 -0.10135119 1.1123638 10133408
0.64350158 -0.10001045 1.1198235 10001566
0.29679614 -0.095582746 1.1152586 921358
0.63399988 -0.095450841 1.113775 11253695
0.64094204 -0.096174978 1.1182944 10858421
0.29564285 -0.085466601 1.1147161 1052687
0.62800288 -0.084134072 1.1102824 11451589
0.63434881 -0.085450336 1.1143881 11254210
0.64076948 -0.085771844 1.1185811 11188160
0.2944921 -0.075386263 1.1141545 1118480
0.6283133 -0.075156644 1.1108311 11188159
0.63469851 -0.075438857 1.1150023 11253953
0.64112389 -0.075722836 1.1191996 10924730
0.29347551 -0.064931363 1.1160312 1052687
0.52665246 -0.065454498 1.1162603 1447443
0.53160489 -0.065196894 1.1118672 1447443
0.57456952 -0.063394837 1.1154566 1579029
0.58001584 -0.06311053 1.1104542 1644566
0.61853236 -0.061550677 1.1185164 1973787
0.62621993 -0.063222572 1.1124619 6448741
0.63504857 -0.065416344 1.1156173 10726317
0.64144319 -0.066669412 1.1197572 11187643
0.29219243 -0.055229686 1.1130517 1118480
0.29130316 -0.044353373 1.1173435 789772
0.28974128 -0.034087747 1.1113527 1118480
