# .PCD v0.7 - Point Cloud Data file format
VERSION 0.7
FIELDS x y z rgb
SIZE 4 4 4 4
TYPE F F F U
COUNT 1 1 1 1
WIDTH 529
HEIGHT 1
VIEWPOINT 0 0 0 1 0 0 0
POINTS 529
DATA ascii
-0.25101948 -0.042540211 1.0799125 12105912
-0.24589668 -0.042722348 1.0798258 12434877
-0.25251064 -0.034389488 1.0794176 11513775
-0.24440068 -0.035054263 1.0793661 12500670
-0.2382628 -0.032534856 1.0797899 12829635
-0.26011783 -0.021432966 1.0799365 263172
-0.25403693 -0.024333144 1.0789316 9408399
-0.24446031 -0.024177056 1.0786386 12369084
-0.23693252 -0.023895707 1.0794655 12763842
-0.26005685 -0.014610159 1.0796835 263172
-0.25493628 -0.014595812 1.0786191 8618883
-0.24512915 -0.01459123 1.0782882 12171705
-0.23658082 -0.014603944 1.0792285 12566463
-0.26164407 -0.0048703672 1.0798019 263172
-0.25570622 -0.0047022891 1.0784444 7171437
-0.24507785 -0.0048628049 1.0780629 11974326
-0.23653439 -0.0048671011 1.0790164 12303291
-0.26201236 0.0048700273 1.0797144 263172
-0.25586385 0.0048643295 1.0784256 6842472
-0.24508764 0.0048629921 1.0781063 11842740
-0.23654713 0.0048673777 1.0790746 12040119
-0.26198199 0.014608572 1.0795892 263172
-0.25587255 0.014593449 1.0784631 6776679
-0.24512859 0.014591161 1.0782864 11711154
-0.23659725 0.014604975 1.0793035 11711154
-0.26166856 0.024998134 1.0796353 263172
-0.25531504 0.024401275 1.0786383 7368816
-0.24486272 0.02411841 1.0786458 11579568
-0.23713893 0.023860149 1.0795525 11645361
-0.26104882 0.035066456 1.0797573 263172
-0.25404054 0.035040487 1.07895 9671571
-0.24438025 0.035051201 1.0792767 11447982
-0.23827109 0.032535933 1.0798274 11579568
-0.26010531 0.04286385 1.0798845 263172
-0.25402138 0.04561067 1.079559 11053224
-0.2459833 0.04428174 1.0797366 11316396
-0.25427547 0.051634487 1.0799494 11053224
-0.24479988 -0.09143126 1.0898108 13421772
-0.253553 -0.084622204 1.0887336 12237498
-0.24440883 -0.085397854 1.0880708 13487565
-0.23587039 -0.084700793 1.0889343 14277081
-0.26078954 -0.07409066 1.0892518 7368816
-0.25487021 -0.075482123 1.0866327 11447982
-0.24537908 -0.075628601 1.0856092 13355979
-0.23495404 -0.075285807 1.0868316 14277081
-0.22804077 -0.0752142 1.0890719 12895428
-0.26253366 -0.065552562 1.0881535 1250067
-0.25525463 -0.065404385 1.0847901 9408399
-0.24533859 -0.065490104 1.0835073 13290186
-0.23487802 -0.065572008 1.0848628 14211288
-0.22690746 -0.065492742 1.088204 9737364
-0.26420987 -0.055310577 1.0868579 197379
-0.25496951 -0.055683848 1.0828871 9145227
-0.24495527 -0.05562852 1.0818149 13224393
-0.23524386 -0.055844009 1.0830789 14013909
-0.22561817 -0.054960091 1.0872494 4671303
-0.26401004 -0.044789497 1.0844289 197379
-0.25523618 -0.046027806 1.081385 8289918
-0.24411263 -0.047003634 1.0804843 13224393
-0.23499075 -0.045633249 1.0815665 13421772
-0.22552362 -0.044607483 1.0856707 3881787
-0.2701475 -0.03732983 1.0889492 131586
-0.2645053 -0.033949718 1.0833148 197379
-0.25718743 -0.035877723 1.0807216 5395026
-0.23440821 -0.035425544 1.080811 12698049
-0.22508486 -0.0342534 1.0848445 2368548
-0.21921805 -0.033423685 1.0897098 197379
-0.26494908 -0.024665078 1.0823519 197379
-0.25823298 -0.028259458 1.0802026 328965
-0.23249972 -0.024858529 1.0806235 12171705
-0.22492753 -0.024449617 1.0840865 1184274
-0.21909447 -0.024562579 1.0890954 197379
-0.27224717 -0.013760407 1.0894893 65793
-0.26548815 -0.014641146 1.0819585 197379
-0.23199813 -0.014621818 1.0805569 11579568
-0.22489367 -0.014667328 1.0839248 394758
-0.21908876 -0.014736781 1.0890671 197379
-0.27194101 -0.0049096313 1.0882641 65793
-0.2661745 -0.0051233689 1.0817767 197379
-0.23198061 -0.0048735947 1.0804752 9276813
-0.22489549 -0.0048891366 1.0839353 328965
-0.2191741 -0.0049136104 1.0894912 197379
-0.27168331 0.0049033938 1.0872328 65793
-0.2663835 0.0048786765 1.0816362 197379
-0.23201017 0.0048743505 1.080613 5921370
-0.22493958 0.0048903618 1.0841495 263172
-0.27144772 0.014698578 1.0862901 131586
-0.26633638 0.014633632 1.0814456 197379
-0.23206112 0.014625875 1.08085 5921370
-0.22500226 0.014674709 1.0844533 263172
-0.27124381 0.024480036 1.085474 131586
-0.26632988 0.024389112 1.0814198 197379
-0.23275995 0.024828779 1.0809623 4605510
-0.2250998 0.024468584 1.0849262 263172
-0.2716212 0.034934003 1.0856727 65793
-0.26619306 0.034830041 1.0813309 197379
-0.23449954 0.035232089 1.0809566 6645093
-0.22549562 0.034051951 1.0851458 263172
-0.27241004 0.044642553 1.0865664 65793
-0.26480719 0.045840774 1.081175 197379
-0.25819427 0.049690221 1.0800407 10724259
-0.24298088 0.047426965 1.0802681 11316396
-0.2349101 0.045421686 1.0815029 6447714
-0.22623844 0.044857219 1.0850313 263172
-0.27261221 0.055341005 1.0866638 65793
-0.26439345 0.055610381 1.0814776 197379
-0.25436988 0.056084041 1.08035 11053224
-0.24472365 0.055575404 1.0807933 11250603
-0.23527984 0.055648018 1.0822062 5592405
-0.22617576 0.055621963 1.0861051 197379
-0.27249956 0.061753139 1.0865704 131586
-0.26507702 0.062390797 1.0825043 197379
-0.25446311 0.061422158 1.0807467 11053224
-0.24483275 0.061452202 1.0812753 11250603
-0.23476118 0.061865672 1.0828167 4013373
-0.22679146 0.062605232 1.0862421 197379
-0.25288922 -0.11107346 1.0993361 9934743
-0.24469963 -0.11293863 1.0981824 6381921
-0.23556519 -0.11204629 1.0991526 7237230
-0.36326113 -0.10060307 1.0987134 7697781
-0.35713196 -0.10128889 1.0992428 6776679
-0.26143202 -0.10212752 1.0991145 9276813
-0.25417107 -0.10545032 1.096751 11513775
-0.24476039 -0.10569064 1.0949141 13158600
-0.23507212 -0.10525815 1.0961752 13684944
-0.22744077 -0.10320303 1.0988309 12500670
-0.36279327 -0.094167247 1.0987982 4802889
-0.35455808 -0.09504474 1.0993894 8092539
-0.34910157 -0.094218276 1.0993831 2236962
-0.26341549 -0.094402388 1.0969098 8816262
-0.25519171 -0.09547282 1.0929039 11645361
-0.24517635 -0.096496589 1.0914859 13224393
-0.23494984 -0.095828541 1.0926776 13882323
-0.22534816 -0.094417706 1.0966856 12237498
-0.3645696 -0.085046187 1.0987746 7895160
-0.35646453 -0.085287377 1.0993218 6184542
-0.34830037 -0.088315479 1.0999836 7960953
-0.2643078 -0.084993444 1.0941267 7763574
-0.25750554 -0.088241003 1.0908797 11447982
-0.23235293 -0.087572299 1.0907196 14013909
-0.22504626 -0.085360549 1.0936804 12171705
-0.21900336 -0.08423356 1.0984946 9474192
-0.26531991 -0.075850144 1.09387 3750201
-0.22306561 -0.075401783 1.0932564 8553090
-0.21893875 -0.07430087 1.0981705 3421236
-0.27019578 -0.062352873 1.0971229 65793
-0.26667246 -0.065434769 1.0919534 131586
-0.22219984 -0.065577738 1.0919505 1052688
-0.21843393 -0.063118435 1.0966445 131586
-0.26886284 -0.05613761 1.0917107 131586
-0.22134575 -0.057058193 1.090506 263172
-0.21823829 -0.054314863 1.0946745 197379
-0.27080753 -0.04333178 1.0916097 65793
-0.21795081 -0.044380642 1.0932328 131586
-0.2173083 -0.034887169 1.0936031 131586
-0.27256998 -0.022632683 1.0907812 65793
-0.21704188 -0.024664238 1.0936129 131586
-0.27241766 -0.018685687 1.0901716 65793
-0.21713324 -0.014803973 1.0940731 131586
-0.21736033 -0.0049391822 1.0952188 65793
-0.21819633 0.0049376031 1.0944726 65793
-0.21891156 0.01479205 1.0930957 131586
-0.27581331 0.027678031 1.0958481 0
-0.2191242 0.024677299 1.0941581 131586
-0.27443069 0.033442684 1.0903549 65793
-0.22128087 0.037371941 1.0901864 197379
-0.21936862 0.034586303 1.0953803 65793
-0.22079308 0.044773079 1.0921046 131586
-0.21930961 0.042993665 1.0980514 65793
-0.22088084 0.054235287 1.0930808 131586
-0.26377824 0.064215675 1.0951335 0
-0.2214071 0.062433895 1.0935996 131586
-0.38465637 -0.16201289 1.1017964 9013641
-0.39131618 -0.15496336 1.1021575 6645093
-0.38500461 -0.15456825 1.1017389 7500402
-0.37799731 -0.15073514 1.1017011 9342606
-0.39104652 -0.14825937 1.1029993 6381921
-0.38473937 -0.14437987 1.1025063 6710886
-0.37580344 -0.14334187 1.1017439 8026746
-0.38376698 -0.1347535 1.1036084 6250335
-0.37484637 -0.13422793 1.1021744 6974058
-0.36789659 -0.1327609 1.1017823 8553090
-0.38241711 -0.12625332 1.1048989 5723991
-0.37528884 -0.12443076 1.1034727 6184542
-0.36616927 -0.12393386 1.1019959 7697781
-0.38019198 -0.11874763 1.1061585 5000268
-0.37421215 -0.11526518 1.1050726 5066061
-0.36521998 -0.11422334 1.1026276 6710886
-0.25505644 -0.11271775 1.101836 2302755
-0.24428383 -0.11618353 1.1007738 263172
-0.23430419 -0.1142711 1.1014827 263172
-0.22766781 -0.11134611 1.1040112 2697513
-0.3713342 -0.10680819 1.1065249 3421236
-0.3650527 -0.10614812 1.1038228 5987163
-0.35607648 -0.10344079 1.1025628 4802889
-0.34985709 -0.10067113 1.1048999 8026746
-0.26359779 -0.10444451 1.1026405 7434609
-0.2591624 -0.10823257 1.1007048 9803157
-0.22349061 -0.10483606 1.1032701 10329501
-0.21896303 -0.10198331 1.1083221 7960953
-0.36701497 -0.093247391 1.103544 4013373
-0.35598421 -0.093988009 1.1020377 1644825
-0.34496912 -0.09348999 1.1041633 5987163
-0.33480263 -0.092946753 1.1078583 8882055
-0.32505885 -0.09301807 1.108712 9211020
-0.31518209 -0.092053689 1.1091522 9737364
-0.30632019 -0.091095343 1.1096709 10132122
-0.2673209 -0.094902411 1.1015863 5658198
-0.22153354 -0.097355947 1.1012197 10921638
-0.21833603 -0.094369061 1.1044446 8684676
-0.37063643 -0.08048673 1.1014851 7368816
-0.3656148 -0.083607078 1.1021453 3289650
-0.35339525 -0.082993656 1.1040231 1842204
-0.34525487 -0.085910074 1.1025476 5921370
-0.33479398 -0.086156182 1.1050048 9803157
-0.32473254 -0.084594145 1.1060885 9474192
-0.31466013 -0.084909886 1.1073163 10000536
-0.30498227 -0.084996521 1.1084478 10000536
-0.29574963 -0.08401148 1.1093491 9803157
-0.28868642 -0.081766725 1.1098671 9145227
-0.27182686 -0.081648737 1.1037459 2500134
-0.26901427 -0.08834786 1.1003869 5000268
-0.21624386 -0.084366128 1.10394 7105644
-0.38116348 -0.071199082 1.101277 6842472
-0.37433243 -0.074106775 1.101998 6710886
-0.36582303 -0.075093895 1.1052052 4539717
-0.3576479 -0.078922391 1.1074204 131586
-0.32031316 -0.078830965 1.1061375 6316128
-0.31449056 -0.078872435 1.1067194 7368816
-0.30482408 -0.078954659 1.1078733 7237230
-0.29516882 -0.079045467 1.1091473 5592405
-0.27236477 -0.075819515 1.1059301 1579032
-0.21630041 -0.074994124 1.1042281 4473924
-0.38373455 -0.063755028 1.1015549 7303023
-0.37465355 -0.064599171 1.1040444 6513507
-0.36769062 -0.066307209 1.1069787 5263440
-0.21656676 -0.065552153 1.1033986 131586
-0.3919268 -0.053744007 1.1014061 7434609
-0.38493556 -0.054705791 1.1026008 6974058
-0.37585816 -0.055335373 1.1056299 6513507
-0.21592788 -0.054729264 1.1030327 131586
-0.40051186 -0.040746864 1.1016654 7171437
-0.39433396 -0.044477168 1.1020333 7237230
-0.38518649 -0.04505413 1.1041995 6842472
-0.37817994 -0.048395023 1.1061127 6579300
-0.21574031 -0.04573331 1.1020744 65793
-0.40180546 -0.034195833 1.1019427 7303023
-0.39519945 -0.034991946 1.1030227 7105644
-0.38826862 -0.037531544 1.1045336 6842472
-0.21563813 -0.034780376 1.1015526 65793
-0.39714652 -0.02836756 1.1033611 6974058
-0.21566658 -0.024846237 1.1016979 65793
-0.21584237 -0.014918774 1.1025958 65793
-0.21626008 -0.0049812892 1.1047295 65793
-0.21671259 0.0049952129 1.1070412 65793
-0.21734734 0.014188806 1.1039425 65793
-0.21782763 0.024867538 1.1025753 65793
-0.21829852 0.034889821 1.1049588 65793
-0.21894717 0.045584705 1.1065675 65793
-0.21956006 0.054643042 1.1012866 65793
-0.21984284 0.061675601 1.1027052 65793
-0.21835808 -0.10332652 1.1120366 6381921
-0.34806967 -0.097863063 1.1183724 263172
-0.33162037 -0.097181804 1.110587 6447714
-0.32564366 -0.097192176 1.1107055 8092539
-0.31633937 -0.095929049 1.1105787 9145227
-0.30558056 -0.093778588 1.11062 9803157
-0.29639259 -0.091949642 1.1109192 10132122
-0.28876454 -0.091241613 1.1114526 10263708
-0.21634421 -0.09541744 1.1133744 4671303
-0.12666631 -0.092845112 1.1173329 8553090
-0.35155216 -0.081592336 1.1166157 460551
-0.34573394 -0.082844846 1.1165302 394758
-0.33758339 -0.081624694 1.1170585 394758
-0.29380503 -0.088475533 1.1102929 10395294
-0.28613514 -0.08575289 1.1106329 10000536
-0.2145389 -0.085454494 1.1144332 3618615
-0.20259157 -0.083657674 1.1172879 10395294
-0.19445758 -0.084568828 1.1181041 10526880
-0.1849103 -0.084621191 1.1187955 10592673
-0.17513153 -0.083489068 1.1191828 10592673
-0.16548923 -0.082384147 1.1195512 10395294
-0.1575994 -0.081830487 1.119875 10000536
-0.13526687 -0.084469385 1.1168137 5789784
-0.12548722 -0.085796289 1.1177016 5329233
-0.11997236 -0.087710857 1.1175672 8421504
-0.35558581 -0.079578854 1.1166316 263172
-0.3340719 -0.078980744 1.1176733 328965
-0.32482204 -0.07579574 1.1189845 460551
-0.31772956 -0.07374955 1.1198927 592137
-0.27424937 -0.07132493 1.1135825 263172
-0.21403229 -0.074576691 1.1121444 3421236
-0.20248704 -0.078577176 1.1167109 8947848
-0.19448911 -0.077594377 1.1170638 8553090
-0.18426406 -0.076772682 1.1174532 8816262
-0.17445743 -0.076640941 1.1178501 9342606
-0.16444473 -0.076674484 1.118337 9408399
-0.15477924 -0.077242054 1.118822 9013641
-0.14528519 -0.077920251 1.1191089 6974058
-0.13553999 -0.077596411 1.1170915 6250335
-0.12585032 -0.075441554 1.1176157 5460819
-0.11920717 -0.07604257 1.1179571 5987163
-0.21532801 -0.066136695 1.1131694 1184274
-0.13000941 -0.069539919 1.1171833 2434341
-0.12702048 -0.069558933 1.1174889 2763306
-0.21556523 -0.055144988 1.1114237 65793
-0.21598764 -0.044466197 1.1118733 131586
-0.2156121 -0.035099186 1.1116652 65793
-0.21577859 -0.025089657 1.1125238 65793
-0.21609402 -0.01507459 1.1141499 65793
-0.2166466 -0.0050353026 1.1169989 65793
-0.21560074 0.0041823802 1.1190425 394758
-0.21573076 0.015970608 1.1167618 328965
-0.21771806 0.024450419 1.1138966 131586
-0.21850471 0.03524556 1.1161959 0
-0.21910976 0.043418106 1.1192867 263172
-0.21963279 0.055162005 1.1117125 65793
-0.22022802 0.062348053 1.1147252 0
-0.21088983 0.0787054 1.1185328 0
-0.20485565 0.077704258 1.1186439 65793
-0.19481342 0.077723838 1.1189257 131586
-0.18476006 0.07774087 1.1191723 263172
-0.17521267 0.078265235 1.1194534 460551
-0.16718569 0.079299569 1.1198004 1052688
-0.21102339 0.082794115 1.1192412 0
-0.20500883 0.08281178 1.1194806 0
-0.19580825 0.082392529 1.1196657 0
-0.18485892 0.08182285 1.1197703 0
-0.17477682 0.081831977 1.1198952 0
-0.16771884 0.081838712 1.1199874 0
-0.14423317 0.087347053 1.1180719 197379
-0.13423853 0.086060837 1.1188358 263172
-0.12724429 0.086849332 1.1194571 197379
-0.14365608 0.094762623 1.1181998 197379
-0.13290104 0.096294403 1.1189052 197379
-0.12758146 0.094592132 1.1194615 197379
-0.14026356 0.10292722 1.1185861 263172
-0.13470839 0.1028543 1.119013 263172
-0.12826775 0.10200821 1.1195748 0
-0.10083349 -0.1423834 1.123367 8684676
-0.094620027 -0.14437069 1.1243804 8026746
-0.088343702 -0.14520861 1.1256301 7039851
-0.11033039 -0.13057449 1.1220392 9408399
-0.10389021 -0.1342852 1.1230592 8355711
-0.095068894 -0.1354761 1.1251217 7237230
-0.11270566 -0.12383782 1.1217588 8618883
-0.10441539 -0.12469185 1.1237651 7303023
-0.097053163 -0.12586433 1.126007 6710886
-0.12081493 -0.11171601 1.1207074 7566195
-0.11437979 -0.11438104 1.1220646 7566195
-0.10491233 -0.11497676 1.1253146 6513507
-0.098608993 -0.11894075 1.1268969 6447714
-0.35300747 -0.10071395 1.1277006 526344
-0.12202583 -0.10367162 1.120762 7829367
-0.11454497 -0.10440955 1.1236973 6381921
-0.10746481 -0.10644826 1.126489 5460819
-0.34935704 -0.098797761 1.1290541 65793
-0.1750147 -0.090036884 1.1214241 9934743
-0.16509263 -0.090143189 1.122748 9145227
-0.15916063 -0.09022481 1.1237646 7895160
-0.13426968 -0.090621337 1.1215029 2565927
-0.12260578 -0.095932551 1.1215522 7368816
-0.11646467 -0.095579922 1.1254402 5000268
-0.35548612 -0.080468208 1.1291109 0
-0.18244071 -0.089451708 1.1204278 10329501
-0.1740077 -0.087365173 1.12052 10263708
-0.16438743 -0.086279087 1.1211216 9803157
-0.15449484 -0.085345432 1.1217855 9145227
-0.145724 -0.084845632 1.1223029 7566195
-0.13556473 -0.08295761 1.121454 1973790
-0.12051529 -0.082031392 1.1226248 1973790
-0.11854444 -0.084097102 1.123142 2434341
-0.31354767 -0.075069986 1.1207465 1184274
-0.30510736 -0.074799158 1.1228571 1118481
-0.29530957 -0.072939985 1.1255821 526344
-0.28774974 -0.070158415 1.1271197 328965
-0.13458832 -0.072859786 1.1217479 1710618
-0.12344058 -0.073862106 1.1215825 3158064
-0.11831675 -0.072810352 1.1209848 6579300
-0.32033214 -0.06972529 1.1201614 263172
-0.31330642 -0.067919038 1.1209384 328965
-0.30451035 -0.065962739 1.1220615 592137
-0.29509065 -0.065707766 1.1234529 1118481
-0.28532788 -0.064987488 1.1255906 1184274
-0.27916461 -0.064580575 1.1273489 789516
-0.21526138 -0.064832479 1.1229165 460551
-0.13264714 -0.069867581 1.1224474 197379
-0.12316711 -0.066024043 1.123976 3750201
-0.11523071 -0.064939283 1.1220282 6579300
-0.1083312 -0.061758909 1.1223005 7500402
-0.3019501 -0.059782065 1.123203 263172
-0.29425851 -0.057525977 1.1240152 328965
-0.28518406 -0.05581823 1.1250175 592137
-0.27925307 -0.055850528 1.1256533 657930
-0.21585353 -0.055736136 1.1233599 0
-0.12210293 -0.056682207 1.1260542 4342338
-0.11455889 -0.055756435 1.1237851 6052956
-0.1060733 -0.054555651 1.1228987 7566195
-0.28300247 -0.049283892 1.1264311 197379
-0.27934656 -0.049774475 1.1260301 263172
-0.21617131 -0.045666844 1.1250137 131586
-0.12098911 -0.049819045 1.1270384 4868682
-0.11439148 -0.045958001 1.1256078 5921370
-0.10443189 -0.045624439 1.1239141 6908265
-0.097856283 -0.043097183 1.1240906 8092539
-0.21676722 -0.035618931 1.1281149 657930
-0.11203744 -0.037345316 1.1264787 6052956
-0.10456399 -0.035530008 1.1253303 6513507
-0.096261062 -0.034972649 1.1248052 7434609
-0.21682605 -0.025448358 1.1284212 460551
-0.10331026 -0.026758557 1.1264236 6381921
-0.094618767 -0.025219671 1.1257855 7171437
-0.088392653 -0.021336157 1.1262538 7960953
-0.094682924 -0.0177845 1.1265441 6776679
-0.088390239 -0.019303616 1.1262231 7895160
-0.21887438 0.0071261823 1.1284851 526344
-0.21890023 0.01527223 1.1286185 526344
-0.21896106 0.024442326 1.128932 263172
-0.10075305 0.039690595 1.1281384 263172
-0.093436524 0.037345152 1.127566 526344
-0.087120794 0.038306009 1.1273267 723723
-0.22099496 0.047865268 1.128917 460551
-0.21963136 0.049594175 1.1219512 0
-0.11092187 0.049863957 1.1280544 131586
-0.10389956 0.046622671 1.1274019 263172
-0.094529495 0.045739289 1.1267382 723723
-0.087939367 0.043207139 1.1269556 526344
-0.22024846 0.054809026 1.1251036 0
-0.21984826 0.051669408 1.1230593 0
-0.11360217 0.056410827 1.1273174 131586
-0.1046273 0.055867508 1.1260158 526344
-0.096487895 0.054767303 1.1258744 657930
-0.12263133 0.065892324 1.1275913 0
-0.11476725 0.064997844 1.1258273 263172
-0.10537362 0.065103665 1.1248612 592137
-0.098485969 0.061934475 1.1254909 197379
-0.16267416 0.079821482 1.1200362 1644825
-0.13123381 0.07731571 1.1277046 0
-0.12457392 0.074405722 1.1258603 65793
-0.11540719 0.073928304 1.1241615 526344
-0.10851729 0.072006799 1.1242284 460551
-0.20314677 0.085907876 1.1203492 0
-0.19465484 0.086245947 1.1206932 0
-0.18503238 0.085944816 1.1208215 0
-0.174954 0.085960895 1.1210306 0
-0.16448668 0.085277922 1.12091 0
-0.15533437 0.085567445 1.1208442 131586
-0.14351872 0.08602871 1.1219651 1052688
-0.134728 0.083165027 1.1243144 855309
-0.12465654 0.082494564 1.1234295 723723
-0.11788943 0.080732346 1.1233373 263172
-0.1933185 0.090080373 1.1219655 0
-0.18487205 0.091030084 1.1225779 0
-0.17532894 0.092226312 1.1234338 0
-0.16524503 0.092254832 1.1237788 0
-0.15511589 0.092260092 1.1238379 0
-0.145559 0.096251339 1.1231107 1710618
-0.13587025 0.092715584 1.1211945 1710618
-0.12691417 0.094477296 1.1236928 921102
-0.14356051 0.10099914 1.1233288 1710618
-0.13422926 0.10536054 1.1230005 394758
-0.12762594 0.10627048 1.1272959 0
-0.13319606 0.11412663 1.1230679 131586
-0.12538633 0.11513498 1.1268593 65793
-0.11921415 0.11921415 1.1294873 65793
-0.13241905 0.12415804 1.1231587 197379
-0.12490092 0.12490311 1.1256672 263172
-0.11790566 0.12605113 1.1286711 131586
-0.13142149 0.13311106 1.1235119 65793
-0.12482458 0.13497491 1.1249717 328965
-0.11633376 0.1356675 1.1279187 263172
-0.12415177 0.14464399 1.1249971 197379
-0.11509658 0.14561076 1.1274357 328965
-0.12198573 0.15331683 1.1255151 65793
-0.11488113 0.15554917 1.1269801 328965
-0.10893761 0.1567883 1.128583 328965
-0.11467179 0.16285977 1.1269138 197379
-0.1088959 0.16181727 1.1281507 394758
-0.11770771 -0.081883609 1.1346095 723723
-0.19226776 -0.070566252 1.1336718 263172
-0.18447088 -0.071404509 1.1325419 394758
-0.17455582 -0.071455598 1.1315577 723723
-0.16430505 -0.071437009 1.1312653 526344
-0.15429769 -0.07264065 1.1314703 328965
-0.14483026 -0.074583754 1.132586 394758
-0.13598144 -0.070546769 1.1333587 657930
-0.11771684 -0.076771818 1.1346976 723723
-0.21320187 -0.061729454 1.1323476 460551
-0.20493659 -0.062980279 1.1320947 526344
-0.19498342 -0.064315468 1.1316241 592137
-0.18470821 -0.064290941 1.1312196 592137
-0.17483574 -0.064866744 1.1315765 394758
-0.16529967 -0.066917472 1.1317228 263172
-0.15825555 -0.068407238 1.1317919 263172
-0.21317165 -0.055078253 1.1306373 657930
-0.20491217 -0.054245982 1.1310242 460551
-0.195527 -0.054799233 1.1319606 328965
-0.18594123 -0.057064004 1.1318243 197379
-0.26754755 -0.04817906 1.1363178 394758
-0.21347167 -0.046555795 1.1313956 263172
-0.20729493 -0.04770232 1.1319654 263172
-0.2173809 -0.018369565 1.1313088 0
-0.21934626 0.028566364 1.130918 0
-0.21632309 0.036598463 1.1332657 592137
-0.20830688 0.039121151 1.1352549 657930
-0.21547084 0.044932313 1.132004 855309
-0.20554285 0.044993434 1.1335713 1315860
-0.19682314 0.046696473 1.1351799 723723
-0.21491741 0.052484903 1.1324447 263172
-0.20535417 0.054148413 1.1325228 592137
-0.19524868 0.054178055 1.1331729 1184274
-0.18588522 0.055067789 1.1346722 986895
-0.17770769 0.057595868 1.1360509 460551
-0.20290196 0.060819507 1.1330914 263172
-0.19457214 0.06272848 1.1329482 328965
-0.18501697 0.064398207 1.1331121 723723
-0.1749433 0.064451486 1.1340804 1118481
-0.16573519 0.066306747 1.1354768 855309
-0.15801388 0.068746641 1.1374075 197379
-0.18301189 0.070546478 1.1333541 328965
-0.17409642 0.072589025 1.1333162 394758
-0.16448174 0.074485205 1.1336583 855309
-0.15485406 0.075088844 1.1348505 1052688
-0.14578235 0.077504233 1.1364452 592137
-0.16157237 0.080786183 1.1335726 328965
-0.15349436 0.082278997 1.1336472 657930
-0.14559275 0.081880249 1.1345724 1052688
-0.1182879 -0.082907185 1.1535685 65793
-0.11753375 -0.078009121 1.1529846 65793
