# .PCD v0.7 - Point Cloud Data file format
VERSION 0.7
FIELDS x y z
SIZE 4 4 4
TYPE F F F
COUNT 1 1 1
WIDTH 363
HEIGHT 1
VIEWPOINT 0 0 0 1 0 0 0
POINTS 363
DATA ascii
0.283167 0.3360337 0.9819451
0.25793138 0.43468502 0.97417498
0.23820609 0.4403657 0.96699971
0.23605572 0.44001409 0.96620256
0.23320989 0.43950221 0.96514678
0.14261323 0.47442898 0.93232775
0.1417461 0.47542337 0.93202382
0.14092416 0.47248662 0.93167585
0.14082193 0.47039297 0.93160594
0.14076799 0.46642631 0.93152487
0.14071274 0.46443501 0.93147385
0.13928486 0.44891721 0.93070871
0.13939783 0.44706714 0.93072176
0.14014274 0.44205508 0.93091875
0.14049238 0.44046018 0.93102288
0.14195104 0.43819705 0.93152505
0.14271411 0.4370333 0.93178809
0.14437881 0.43498522 0.93236941
0.1464588 0.43336913 0.93311036
0.14743821 0.43258494 0.93345886
0.16155574 0.41990027 0.9384613
0.16228408 0.41910362 0.93871719
0.16304076 0.41833979 0.93898404
0.16379482 0.41757864 0.93924993
0.16455656 0.41683006 0.93951887
0.16719881 0.41466755 0.94045836
0.16900909 0.41317761 0.94110197
0.17083165 0.41169536 0.94175017
0.17266464 0.41021881 0.9424023
0.17347831 0.40954608 0.9426915
0.17529291 0.40805268 0.94333661
0.17711505 0.4065623 0.94398451
0.17894861 0.40507841 0.94463676
0.17976034 0.40442055 0.94492549
0.18157956 0.40292391 0.94557226
0.18340176 0.40142617 0.9462201
0.18523909 0.3999379 0.94687366
0.18604645 0.39929244 0.94716096
0.18787003 0.39779225 0.94780928
0.21515569 0.36095199 0.95728761
0.21792246 0.35599917 0.95822996
0.2195756 0.35290766 0.95879096
0.22081229 0.35113806 0.95921898
0.22205611 0.34937564 0.9596498
0.22280166 0.34828299 0.95990747
0.22403198 0.34650978 0.96033311
0.22642583 0.34392694 0.96117467
0.22885807 0.34135473 0.96203059
0.23346163 0.33762217 0.96366805
0.23518775 0.33617172 0.9642812
0.23696627 0.33475342 0.9649142
0.23888505 0.3334246 0.96560019
0.24090059 0.33215466 0.96632272
0.2430274 0.33095163 0.96708727
0.24526559 0.32981399 0.96789384
0.24762265 0.32874501 0.96874523
0.25008231 0.32773259 0.96963525
0.2526876 0.32680258 0.97058016
0.25544161 0.32595482 0.9715811
0.25831968 0.32517198 0.97262877
0.26135615 0.32447359 0.97373599
0.30161762 0.30477783 0.98825651
0.3246778 0.16856121 0.99464625
0.32463485 0.16656969 0.9945997
0.32448947 0.16308163 0.99449235
0.32436424 0.16106218 0.9944151
0.32423913 0.15904367 0.99433792
0.32415974 0.15703875 0.99427778
0.32411677 0.15504441 0.99423116
0.32407376 0.15305042 0.99418455
0.32403076 0.15105677 0.994138
0.32398778 0.14906348 0.99409139
0.32394487 0.14707054 0.9940449
0.32390186 0.14507794 0.99399829
0.32385886 0.14308567 0.99395174
0.32381594 0.14109379 0.99390519
0.32377303 0.13910224 0.9938587
0.32373011 0.13711102 0.9938122
0.3236872 0.13512017 0.99376565
0.32364425 0.13312964 0.99371916
0.32360131 0.13113946 0.99367267
0.32355845 0.12914966 0.99362618
0.32351553 0.12716016 0.99357969
0.32347268 0.12517104 0.99353325
0.32342979 0.12318226 0.99348676
0.32338691 0.12119382 0.99344033
0.32334405 0.11920573 0.99339384
0.32330117 0.11721798 0.99334741
0.32325834 0.11523058 0.99330097
0.32321548 0.11324352 0.99325454
0.32317266 0.11125682 0.99320811
0.32312983 0.10927045 0.99316174
0.32308701 0.10728443 0.99311531
0.32304421 0.10529876 0.99306893
0.32300138 0.10331343 0.99302256
0.32295865 0.10132845 0.99297619
0.32291582 0.099343814 0.99292982
0.32287306 0.097359531 0.99288344
0.32283026 0.095375583 0.99283707
0.32278746 0.093391962 0.99279076
0.32274479 0.091408722 0.99274445
0.32270199 0.08942581 0.99269807
0.32265919 0.087443233 0.99265176
0.32261649 0.085461013 0.99260545
0.32257372 0.083479129 0.99255913
0.32253101 0.081497595 0.99251288
0.32248834 0.079516403 0.99246657
0.3224456 0.077535562 0.99242032
0.32240289 0.075555056 0.992374
0.32236016 0.073574893 0.99232775
0.32231751 0.07159508 0.9922815
0.32227486 0.069615617 0.99223524
0.32223216 0.067636482 0.99218899
0.32218951 0.065657698 0.9921428
0.32214689 0.06367927 0.9920966
0.32210419 0.061701164 0.99205035
0.3220616 0.059723414 0.99200416
0.32192701 0.055967957 0.99189669
0.32180265 0.053976793 0.99182016
0.32167828 0.051986516 0.99174368
0.32158241 0.050000027 0.99167776
0.3215397 0.048019502 0.99163145
0.32149696 0.046039321 0.9915852
0.32145435 0.044059489 0.99153894
0.32141173 0.042079996 0.99149275
0.32136899 0.04010085 0.9914465
0.32132638 0.038122047 0.99140024
0.32128382 0.036143593 0.99135405
0.32124114 0.034165476 0.99130785
0.32119852 0.0321877 0.99126166
0.32115594 0.030210275 0.99121547
0.32111329 0.028233193 0.99116927
0.32107067 0.026256453 0.99112308
0.32102811 0.024280056 0.99107695
0.32098556 0.022304002 0.99103075
0.32094294 0.020328291 0.99098462
0.32104957 0.018360384 0.9909935
0.32122195 0.016394921 0.9910267
0.32141355 0.014429234 0.99106687
0.32236409 0.0064975247 0.99129456
0.32253674 0.004530441 0.99132776
0.32270944 0.0025622994 0.99136102
0.32288224 0.00059309602 0.99139428
0.32305515 -0.0013771653 0.99142754
0.32322824 -0.0033484846 0.99146086
0.32419538 -0.011255726 0.99169499
0.32436848 -0.013227604 0.99172831
0.32454175 -0.01520054 0.99176168
0.32471499 -0.017174542 0.991795
0.32488844 -0.019149609 0.99182844
0.32506192 -0.021125734 0.99186182
0.32602665 -0.02900932 0.99209541
0.32620028 -0.030985989 0.99212885
0.32637396 -0.03296373 0.99216229
0.32654783 -0.03494253 0.99219579
0.32672173 -0.036922403 0.99222928
0.32689574 -0.038903333 0.99226284
0.32785803 -0.046763271 0.99249589
0.32803214 -0.048744738 0.99252945
0.32820633 -0.050727271 0.99256301
0.32838064 -0.052710876 0.99259657
0.32855499 -0.054695539 0.99263018
0.32872951 -0.056681283 0.9926638
0.32968935 -0.064517573 0.99289632
0.32986405 -0.066503838 0.99293
0.3300387 -0.068491161 0.99296367
0.33021355 -0.070479557 0.99299741
0.33038837 -0.072469026 0.99303108
0.3305634 -0.074459583 0.99306482
0.3315208 -0.082272232 0.9932968
0.33169597 -0.084263295 0.9933306
0.33187115 -0.086255416 0.99336439
0.33204645 -0.08824861 0.99339819
0.33222178 -0.090242878 0.99343199
0.33239728 -0.092238232 0.99346584
0.33335227 -0.10002722 0.99369729
0.33352789 -0.10202308 0.9937312
0.33370355 -0.10402 0.99376506
0.33387935 -0.10601801 0.99379897
0.33405524 -0.10801709 0.99383289
0.33423126 -0.11001724 0.99386686
0.33451325 -0.11203566 0.99393958
0.3351838 -0.11778259 0.99409783
0.33535987 -0.11978324 0.9941318
0.335536 -0.12178496 0.99416578
0.33571234 -0.12378776 0.99419981
0.33588868 -0.12579165 0.99423379
0.3360652 -0.12779661 0.99426788
0.33721215 -0.12871365 0.99467605
0.33985355 -0.12882507 0.99564689
0.35162318 -0.12793136 0.99999428
0.35775575 -0.12730293 1.002262
0.3587558 -0.12719668 1.0026318
0.35975385 -0.12709066 1.003001
0.3607499 -0.12698483 1.0033693
0.36174387 -0.12687922 1.003737
0.37137282 -0.12634765 1.0072905
0.37291932 -0.12634271 1.0078601
0.37446544 -0.12633778 1.0084294
0.37601128 -0.12633285 1.0089986
0.37755665 -0.12632793 1.0095677
0.39599168 -0.12441282 1.0163851
0.39753202 -0.12440814 1.0169523
0.39907193 -0.12440346 1.0175194
0.40061143 -0.12439878 1.0180863
0.40215057 -0.12439409 1.018653
0.40368935 -0.12438942 1.0192198
0.40522775 -0.12438473 1.0197862
0.41115886 -0.12458485 1.0219669
0.41354939 -0.12471806 1.0228451
0.43278623 -0.1239195 1.0299405
0.45286053 -0.12318198 1.0373433
0.47443408 -0.12186152 1.045307
0.48177987 -0.12075357 1.0480288
0.53770089 -0.1046132 1.0688679
0.54018009 -0.10471196 1.0697793
0.54266405 -0.10481091 1.0706923
0.56023216 -0.10358079 1.0771799
0.56276596 -0.10368058 1.0781113
0.56568366 -0.10382168 1.0791835
0.56860983 -0.10396318 1.0802587
0.58641154 -0.10287024 1.0868301
0.58939743 -0.1030118 1.0879273
0.60756671 -0.10189916 1.0946345
0.61061454 -0.10204077 1.0957545
0.6136713 -0.10218279 1.0968778
0.63325417 -0.10114498 1.1041043
0.63673985 -0.10132235 1.1053849
0.65090752 -0.10002473 1.1106216
0.70926595 -0.060720876 1.1327155
0.7094745 -0.060648084 1.1327933
0.70968229 -0.060575545 1.1328709
0.70988929 -0.060503244 1.1329483
0.71009564 -0.060431197 1.1330254
0.71206975 -0.05837144 1.1337841
0.72110999 0.12935629 1.1400082
0.66330588 0.167698 1.1193161
0.65969133 0.16736491 1.1179801
0.65609062 0.16703312 1.1166493
0.63838297 0.16743925 1.1101356
0.63486266 0.16711102 1.1088343
0.63135576 0.16678405 1.107538
0.62786198 0.16645826 1.1062465
0.6243813 0.16613375 1.10496
0.62091374 0.16581044 1.1036782
0.60174859 0.16615888 1.096627
0.59870344 0.16590795 1.0955019
0.59566718 0.16565776 1.09438
0.59263974 0.1654083 1.0932615
0.58962119 0.16515958 1.0921462
0.58661145 0.16491157 1.0910342
0.58361042 0.1646643 1.0899254
0.58061814 0.16441774 1.0888199
0.57763451 0.16417189 1.0877174
0.57465959 0.16392677 1.0866183
0.55705345 0.1644319 1.0801435
0.55413759 0.16418883 1.0790662
0.55135429 0.16397263 1.078038
0.54883683 0.16381164 1.0771086
0.54632425 0.16365093 1.0761809
0.54381645 0.16349056 1.0752552
0.54131353 0.16333047 1.074331
0.53881562 0.16317073 1.0734088
0.53632236 0.16301127 1.0724884
0.53383398 0.16285212 1.0715697
0.53135026 0.16269328 1.0706527
0.5288716 0.16253476 1.0697377
0.52639759 0.16237654 1.0688243
0.52392817 0.1622186 1.0679126
0.47172654 0.17475055 1.0488852
0.45095539 0.17470568 1.0412365
0.43934351 0.17450379 1.036958
0.43688411 0.17430648 1.0360494
0.43443006 0.17410961 1.0351427
0.43198135 0.17391315 1.0342381
0.42953822 0.17371716 1.0333354
0.4271003 0.17352158 1.0324348
0.42466784 0.1733264 1.0315362
0.42224082 0.17313169 1.0306395
0.419819 0.17293739 1.0297449
0.32178634 0.29844123 0.99558496
0.31739038 0.30856228 0.99412245
0.30382952 0.31742889 0.9892661
0.28888729 0.33006486 0.98395926
-0.28175285 -0.027658537 0.76833117
-0.27998248 -0.03164161 0.76892161
-0.27821258 -0.035623528 0.76951182
-0.27644292 -0.039605401 0.77010202
-0.27467373 -0.043585695 0.77069205
-0.2729049 -0.047565326 0.77128196
-0.2711359 -0.051546097 0.77187192
-0.26370695 -0.12545608 0.77346718
-0.26544437 -0.13134354 0.77273667
-0.26717672 -0.13724491 0.77200782
-0.26890704 -0.14314273 0.77127969
-0.27062854 -0.15099116 0.7705248
-0.27062157 -0.15294465 0.7704972
-0.26711538 -0.15490347 0.77175802
-0.26360086 -0.15694167 0.77302063
-0.26012972 -0.15099746 0.7743904
-0.14819804 -0.10997197 0.81623656
-0.14311165 -0.11186244 0.81808019
-0.14142203 -0.11182991 0.81870282
-0.13968799 -0.11182943 0.8193413
-0.13613057 -0.11189014 0.82065022
-0.12886542 -0.11012059 0.82335258
-0.12113979 -0.10661165 0.82625127
-0.0062315166 -0.14101079 0.86803001
-0.0044013858 -0.14306416 0.86867219
-0.0025804639 -0.14511342 0.86931103
-0.00073093176 -0.14515373 0.86999142
0.0049858093 -0.14129888 0.87215579
0.0033267736 -0.13323897 0.87166929
-0.0002014637 -0.12310033 0.87052655
-0.0019975603 -0.11903085 0.869928
-0.0011316538 -0.033637263 0.87156397
0.0026459694 -0.023523331 0.87311089
0.0045255125 -0.017443649 0.87389672
0.0045074821 -0.015411958 0.87392145
0.0081343949 0.04354744 0.87616628
0.0024933815 0.053698082 0.87424582
-0.001286149 0.059772685 0.87294793
-0.0050267577 0.065849647 0.87166435
-0.017007053 0.1395226 0.86838955
-0.015302688 0.14763162 0.86914217
-0.013621777 0.15776604 0.86991745
-0.013676077 0.1597742 0.86992842
-0.013730288 0.16178174 0.86993945
-0.013783246 0.16378944 0.86995089
-0.013831317 0.16579969 0.86996418
-0.015774816 0.16775019 0.86927867
-0.021349669 0.1696827 0.86725581
-0.023220211 0.16555917 0.86650348
-0.028781861 0.15527087 0.86429697
-0.030662775 0.1511483 0.86354083
-0.032517225 0.14704515 0.86279476
-0.09161216 0.094422765 0.84022427
-0.10077089 0.090276606 0.83678806
-0.1062246 0.088215955 0.83474821
-0.18149507 0.086067207 0.8070004
-0.18680963 0.088107191 0.80507499
-0.19390512 0.090143718 0.80249387
-0.20098522 0.09219718 0.79991865
-0.25623146 0.13559589 0.78024632
-0.26154307 0.14563236 0.77844536
-0.26508412 0.1516445 0.77723432
-0.26862499 0.15766543 0.77602339
-0.27213994 0.15765482 0.77472901
-0.27389589 0.15766817 0.77408272
-0.27564088 0.15571223 0.77341002
-0.27562985 0.15374289 0.77338374
-0.2756187 0.15177545 0.77335745
-0.2756072 0.14981326 0.7733314
-0.27559564 0.1478534 0.77330548
-0.27379307 0.13994342 0.77384716
-0.27200094 0.1339893 0.77441519
-0.27865824 0.053826664 0.77072752
-0.28038952 0.049857594 0.77002883
-0.28212062 0.045892652 0.76933026
-0.28385177 0.041926831 0.7686317
-0.28558275 0.037959699 0.76793313
-0.28731367 0.033992063 0.76723462
-0.28904411 0.030022547 0.76653624
