# .PCD v0.7 - Point Cloud Data file format
VERSION 0.7
FIELDS x y z rgb
SIZE 4 4 4 4
TYPE F F F U
COUNT 1 1 1 1
WIDTH 434
HEIGHT 1
VIEWPOINT 0 0 0 1 0 0 0
POINTS 434
DATA ascii
0.24731895 0.34705523 0.89886791 7105644
0.23943055 0.35874048 0.89767432 6513507
0.24233843 0.354197 0.89735204 7237230
0.23636302 0.36460754 0.89730227 6250335
0.2320746 0.37537256 0.89815676 4934475
0.2294631 0.38676223 0.89880562 3355443
0.23065704 0.38200021 0.89714211 4671303
0.25683627 0.33738703 0.90702915 4210752
0.26329726 0.33276334 0.90810788 4473924
0.24704303 0.34686321 0.90500134 4276545
0.2517603 0.3418234 0.9057796 4408131
0.23881945 0.35840416 0.90442121 3815994
0.2421955 0.35315534 0.90440696 4144959
0.23564811 0.36474964 0.9050523 3552822
0.23200037 0.37458959 0.90492064 3355443
0.22956903 0.38596997 0.904553 3355443
0.23024118 0.38166797 0.90442067 3355443
0.229045 0.39183527 0.90679133 3355443
0.26911613 0.32959163 0.91415524 4473924
0.27353427 0.3276453 0.91684389 4539717
0.25721955 0.33733165 0.91468281 4210752
0.26387852 0.33266908 0.91506195 4408131
0.24749844 0.34657148 0.91522229 4013373
0.25215131 0.34173855 0.91577232 4144959
0.23907173 0.35819361 0.91489547 3750201
0.24231465 0.35315612 0.91467685 3815994
0.23564005 0.36492947 0.91481858 3552822
0.2319719 0.3747856 0.91510731 3355443
0.22952576 0.38639528 0.91523206 3355443
0.23029602 0.38134995 0.91500103 3355443
0.22888641 0.39327762 0.91503781 3421236
0.26971129 0.32964766 0.92277843 4473924
0.27468911 0.32754633 0.92515236 4539717
0.28252122 0.32486728 0.92655617 4605510
0.25695524 0.33787712 0.92480248 4210752
0.26453736 0.33267295 0.92506433 4408131
0.24706936 0.34729031 0.92441976 4013373
0.25202173 0.34214893 0.92506719 4144959
0.2390451 0.35848182 0.92458218 3750201
0.24234591 0.35334647 0.92464286 3881787
0.23576228 0.36485738 0.92502505 3618615
0.23179531 0.37531123 0.92570847 3421236
0.22838554 0.38663718 0.92693967 4276545
0.23026076 0.38140672 0.92314148 3421236
0.21681958 0.39795861 0.92798877 5855577
0.22480202 0.3949824 0.92539501 5263440
0.20875342 0.40157786 0.92933786 5987163
0.21361294 0.40057611 0.9275741 5921370
0.27485636 0.32792222 0.93483514 4539717
0.2847684 0.32479399 0.93551677 4605510
0.29139039 0.32348555 0.9362579 4737096
0.25721046 0.33803949 0.93550807 4210752
0.26484621 0.33290592 0.93481582 4408131
0.24752982 0.34704706 0.93489486 4013373
0.25233242 0.34213907 0.934367 4144959
0.23917076 0.35850343 0.93419755 3750201
0.24257518 0.35325351 0.93492502 3881787
0.23584867 0.3646538 0.93528038 3750201
0.2285699 0.37802082 0.9370389 4737096
0.23176908 0.37338191 0.93516278 4079166
0.21688974 0.38775533 0.93765908 5592405
0.22457863 0.38471228 0.93474114 5329233
0.19832733 0.39919806 0.93952191 5658198
0.20587346 0.39649776 0.9363842 5723991
0.21423912 0.39360037 0.93345684 5723991
0.22217758 0.39112031 0.93078768 5658198
0.18813534 0.40593249 0.9394154 5921370
0.19549347 0.40290412 0.93703532 5855577
0.2041264 0.40147266 0.93273324 5855577
0.31853747 0.30911875 0.94919956 5658198
0.32522824 0.30672017 0.94687009 9141867
0.33276802 0.30406767 0.94681007 10128243
0.30643278 0.31789643 0.94831038 5592405
0.31467599 0.31329322 0.94727707 5658198
0.32075694 0.31051999 0.94564652 5723991
0.2750183 0.32834306 0.94468784 4539717
0.28532997 0.3250466 0.94536698 4737096
0.29496786 0.32258421 0.94569892 5131854
0.3021161 0.32056123 0.94657898 5460819
0.25778624 0.33791751 0.94497746 4276545
0.26522478 0.33310246 0.94497871 4408131
0.27053285 0.33027196 0.94601959 4473924
0.24742781 0.34742323 0.94470173 4013373
0.25252575 0.34228727 0.94464135 4144959
0.23890622 0.35861501 0.94515216 4013373
0.24221878 0.35388994 0.94496363 3947580
0.2342844 0.36526537 0.94519275 4342338
0.21867329 0.37861621 0.94811982 5329233
0.22564733 0.37540182 0.94525921 5197647
0.23081742 0.37151816 0.94240892 4605510
0.20699954 0.38770077 0.94664127 5395026
0.21456766 0.38402876 0.944372 5395026
0.22145796 0.38118008 0.94177514 5460819
0.1886003 0.39917055 0.94885939 5658198
0.19568884 0.39661834 0.94539577 5460819
0.20348018 0.39234766 0.94343925 5526612
0.17698379 0.40797767 0.94778043 5592405
0.18511462 0.4041107 0.94490564 5723991
0.19194402 0.40125117 0.94207394 5789784
0.17217442 0.41030622 0.94953716 5592405
0.32755372 0.2998977 0.95803875 9273451
0.30948907 0.30948907 0.95830429 5329233
0.31577283 0.30686742 0.95535862 6775386
0.32445207 0.30272391 0.95419008 9404780
0.33297384 0.3015686 0.95377147 9207659
0.29757354 0.31853053 0.95653707 5329233
0.30499783 0.31472489 0.95471358 5395026
0.31222063 0.31136227 0.9521361 5526612
0.27629083 0.32800284 0.95539939 4671303
0.28511015 0.32439747 0.95512134 4934475
0.2931239 0.32142729 0.95429385 5197647
0.25750798 0.33846265 0.95468551 4276545
0.2647323 0.33376837 0.95511848 4408131
0.27076223 0.33048487 0.95485926 4539717
0.24778266 0.34720817 0.9546268 4144959
0.25279215 0.34236455 0.95476723 4144959
0.23819719 0.35772693 0.95512098 4408131
0.24275716 0.35263774 0.9550404 4210752
0.22738008 0.3681221 0.95597053 5000268
0.23303226 0.36350846 0.95455503 4671303
0.20858778 0.37995866 0.95942539 5066061
0.2155731 0.37678784 0.95548433 5131854
0.22309355 0.37236911 0.95374441 5131854
0.19813603 0.38830855 0.95725757 5131854
0.20474887 0.38478851 0.95464897 5197647
0.21143864 0.38127598 0.95222169 5263440
0.18653037 0.39731228 0.95556068 5263440
0.19439276 0.39268017 0.95400763 5263440
0.16841671 0.40938562 0.95740366 5263440
0.17502972 0.40563723 0.95519924 5395026
0.18216117 0.40144718 0.95325732 5460819
0.16523439 0.41209501 0.95634162 5329233
0.17066334 0.41079268 0.95066291 5526612
0.31882653 0.2996096 0.96828002 8024160
0.32426405 0.29875794 0.9652096 8550245
0.33080572 0.29946601 0.96500933 7958367
0.30695537 0.30782679 0.96575516 5197646
0.31460452 0.30332381 0.9644717 7629661
0.32090986 0.30096185 0.96143818 8813159
0.28936753 0.31909108 0.96908349 5000268
0.29532933 0.31622702 0.96532577 5066061
0.30257699 0.31180498 0.96361983 5131854
0.27593821 0.32753345 0.96531075 4671303
0.28492847 0.32273591 0.96505618 4934475
0.29075918 0.32026905 0.9621172 5131854
0.25793734 0.33848771 0.96457767 4276545
0.26496786 0.33380672 0.96525145 4473924
0.27077135 0.33042797 0.96306139 4605510
0.24725898 0.3473804 0.96510953 4276545
0.25304729 0.34238523 0.96526277 4210752
0.23661642 0.3571009 0.96536165 4605510
0.24210234 0.35219812 0.96443075 4408131
0.21925238 0.36949703 0.96830004 4802889
0.22505486 0.36638603 0.96489263 4868682
0.23163606 0.36164984 0.96432841 4802889
0.20799753 0.37836891 0.96553659 4868682
0.21497142 0.37362957 0.96478313 4868682
0.22114961 0.37031719 0.96135849 5000268
0.19638817 0.38685113 0.96540719 4868682
0.20331295 0.38222814 0.96387696 4934475
0.1789612 0.39917827 0.96615332 5066061
0.18515514 0.39503485 0.96494639 5000268
0.19155593 0.39118242 0.96332455 4934475
0.1669264 0.40800279 0.96544582 5066061
0.17392136 0.4031674 0.96467352 5066061
0.15630269 0.41554531 0.96595174 5000268
0.1623109 0.41167355 0.96405435 5066061
0.31759956 0.29883227 0.97525489 7432282
0.32343173 0.29768932 0.97559017 7695196
0.2992087 0.30980015 0.97839421 4737096
0.30493724 0.30646676 0.97488254 5460044
0.31302863 0.30160457 0.97426391 7366489
0.28818175 0.31847599 0.97494304 4737096
0.29462981 0.31382659 0.97493786 4802889
0.30031389 0.31082052 0.9705562 5000268
0.27549705 0.32692361 0.97496772 4605510
0.28325525 0.32194349 0.97470558 4737096
0.25827453 0.33869126 0.97602701 4210752
0.2649942 0.33379483 0.9746964 4342338
0.27046773 0.3301819 0.97343701 4473924
0.24653666 0.34758422 0.97545463 4342338
0.25284812 0.34264216 0.97413832 4276545
0.23501205 0.35675311 0.97494477 4539717
0.24168475 0.3515406 0.97422552 4408131
0.21825425 0.36896634 0.97556716 4539717
0.22512716 0.36407092 0.97483307 4605510
0.23066249 0.36046496 0.97221118 4671303
0.20666093 0.37748706 0.97484571 4539717
0.21334736 0.37266737 0.97448945 4605510
0.1899693 0.38965794 0.97945464 4408131
0.19518992 0.3859784 0.9746393 4539717
0.20150827 0.38129565 0.97422475 4605510
0.17773396 0.39858532 0.97536075 4737096
0.18472609 0.39356598 0.97486097 4605510
0.19023673 0.39011681 0.97179359 4671303
0.16611159 0.40708983 0.97492123 4671303
0.17305066 0.40208077 0.97459388 4737096
0.14921026 0.41949141 0.97487527 4671303
0.15495043 0.41525149 0.97483033 4671303
0.16122207 0.41074276 0.9739399 4737096
0.14636338 0.42148742 0.97622949 4605510
0.31630754 0.29877067 0.98422849 6643283
0.32320774 0.2977806 0.98339945 7037783
0.29930192 0.30907249 0.98451817 4539717
0.3050915 0.30509323 0.98505306 5985869
0.31179833 0.30113763 0.98470944 6380369
0.28696802 0.31806287 0.98485869 4408131
0.29439816 0.31264013 0.98475248 4473924
0.2753379 0.32652068 0.9845739 4342338
0.28161892 0.32197711 0.9847945 4408131
0.25871795 0.33873373 0.98554373 4210752
0.26490217 0.33409837 0.98498535 4276545
0.27005741 0.33026695 0.98151207 4408131
0.2466387 0.34756857 0.98488218 4276545
0.25351372 0.34251142 0.98490244 4210752
0.234815 0.35632575 0.984442 4276545
0.24148388 0.35141155 0.98536062 4276545
0.2181112 0.36865535 0.98551583 4276545
0.22488064 0.36363113 0.98427212 4276545
0.20640607 0.37727678 0.98481447 4210752
0.21322086 0.37225097 0.9848364 4276545
0.19508174 0.38571641 0.9844411 4210752
0.20121336 0.38110459 0.98475891 4210752
0.17790091 0.39842936 0.98439693 4408131
0.18472165 0.39343059 0.9847756 4342338
0.19012539 0.39006945 0.98946375 4079166
0.16595782 0.40727115 0.98465997 4342338
0.17312562 0.40203604 0.98543572 4342338
0.14972742 0.4190596 0.9820962 4408131
0.15494278 0.4154796 0.98492581 4276545
0.16072939 0.41114274 0.98436481 4342338
0.1399132 0.42686895 0.98786688 4342338
0.14528401 0.42267135 0.98501474 4276545
0.31651428 0.29947406 0.99392962 5854283
0.32088673 0.2993145 0.9963752 5920076
0.29931292 0.30917197 0.99339139 3355443
0.30489093 0.30597153 0.99581069 5130821
0.31171536 0.30166617 0.99465019 5393991
0.28718171 0.31829435 0.99483162 4079166
0.29407907 0.31316817 0.99470514 4079166
0.2755217 0.32688805 0.9942587 4079166
0.28251567 0.32167894 0.99419904 4079166
0.25919053 0.33900839 0.99417001 4079166
0.26554608 0.33432737 0.9944706 4013373
0.27127844 0.3307614 0.99905211 3947580
0.24723952 0.34797913 0.99454451 4013373
0.25435522 0.34269521 0.99474788 4013373
0.23550123 0.35669273 0.99429595 4013373
0.2418654 0.35211679 0.99522245 3947580
0.21861644 0.3693448 0.99455136 3947580
0.22512691 0.36445141 0.9942562 3947580
0.23095609 0.36036339 0.99617505 3947580
0.20733885 0.37788019 0.99497575 3881787
0.21350034 0.3732743 0.99500406 3881787
0.19560972 0.38672316 0.99464458 3881787
0.2021939 0.38159972 0.99438065 3881787
0.17916808 0.39865321 0.99305797 4210752
0.18484282 0.39481604 0.99467516 4079166
0.19067544 0.39124918 0.99701929 3750201
0.16744883 0.40794039 0.99474001 3947580
0.1740775 0.40288916 0.99467397 4013373
0.155681 0.4165307 0.99368614 3947580
0.16208315 0.41216755 0.99540985 3881787
0.13819349 0.42894006 0.99474162 4342338
0.14426945 0.42517859 0.99486387 4079166
0.15110041 0.420919 0.99699509 3815994
0.13500243 0.43111122 0.99768448 4473924
0.30616334 0.3070693 1.0040992 4276029
0.31417966 0.30241686 1.0036838 4670528
0.28790653 0.31859249 1.0004611 3947580
0.29455975 0.31448823 1.0039226 3815737
0.27574793 0.32818091 1.0021869 3815994
0.2832689 0.32313111 1.0042857 3684408
0.26569676 0.33634543 1.004069 3618615
0.27320752 0.33129206 1.0061463 3552822
0.24805997 0.3494544 1.003561 3684408
0.2553238 0.34405574 1.0036554 3618615
0.26140773 0.34156063 1.0096618 3355443
0.23819123 0.35714197 1.0039586 3552822
0.24374138 0.35308161 1.0044327 3552822
0.22538309 0.36657944 1.0033579 3552822
0.23204459 0.3621209 1.0047911 3552822
0.20870121 0.37855327 1.0015032 3618615
0.21465614 0.37497595 1.0040159 3487029
0.22057359 0.37125349 1.0062053 3355443
0.19555964 0.38930508 1.0036037 3421236
0.20402448 0.38355359 1.0051478 3421236
0.18616536 0.39582428 1.0017717 3684408
0.19256684 0.39146218 1.0021697 3552822
0.17400675 0.40562156 1.0029 3487029
0.18030047 0.4013724 1.0043455 3355443
0.15437798 0.41979977 1.000757 3355443
0.16378388 0.41353169 1.0030717 3355443
0.13999274 0.42901003 1.0011824 4342338
0.14465384 0.42739177 1.0053452 4210752
0.15438209 0.42228705 1.0066833 3552822
0.12722039 0.43528762 1.0073496 4802889
0.13454163 0.43204618 1.005452 4605510
0.31008568 0.30825627 1.0139613 3355443
0.2938374 0.31756091 1.0115533 3355443
0.30388972 0.31119037 1.0116054 3421236
0.27849588 0.32962954 1.0121813 3355443
0.28544471 0.32374719 1.0109205 3355443
0.2715461 0.33554688 1.0135064 3355443
0.25443766 0.34745789 1.0109195 3355443
0.24756461 0.35353324 1.0126483 3355443
0.14568125 0.42902231 1.0156515 4605510
0.15302195 0.42668447 1.0157171 4079166
0.11913821 0.43898165 1.0158982 4802889
0.12515022 0.43591389 1.0154315 4802889
0.13496612 0.43212235 1.0150075 4868682
0.1413143 0.43036729 1.0171987 4934475
0.11672312 0.44023919 1.0188085 4802889
0.14542727 0.42943692 1.0255024 4934475
0.15358077 0.4285171 1.0246897 4737096
0.1182932 0.43897784 1.0244538 4802889
0.12520282 0.43543693 1.0248189 4868682
0.13498658 0.43177328 1.0248989 4934475
0.14093007 0.43019429 1.0255486 4934475
0.11362705 0.44186634 1.0259112 4737096
0.14545897 0.42922342 1.0347259 5000268
0.15498181 0.42853636 1.0349498 4934475
0.16242453 0.4288168 1.0356263 4934475
0.11762568 0.43876773 1.0348581 4802889
0.12508921 0.43501061 1.0348011 4868682
0.13536859 0.43130693 1.034876 4934475
0.10748099 0.44581708 1.0360506 4737096
0.11269968 0.44192734 1.0346032 4737096
0.13891323 0.42996952 1.047528 5066061
0.14499247 0.42905059 1.0446426 5066061
0.15520965 0.42839259 1.0461996 5066061
0.16495553 0.42907661 1.0449021 5000268
0.11726671 0.43836725 1.0455264 4802889
0.12491485 0.43459311 1.045324 4868682
0.13428073 0.43126443 1.0445706 5000268
0.17215888 0.4303959 1.0485668 5066061
0.10556909 0.44677451 1.0448503 4605510
0.11191894 0.44178879 1.0447583 4737096
0.099221431 0.45263872 1.0475037 4473924
0.10094939 0.4509688 1.0458257 4539717
0.13944641 0.42972258 1.0515486 5066061
0.14481872 0.42903134 1.0556022 5131854
0.15518871 0.4284319 1.0553854 5197647
0.16512904 0.42919096 1.0544462 5197647
0.11713703 0.43807077 1.0556729 5000268
0.12503652 0.4342933 1.0555726 5131854
0.13418947 0.43111503 1.0549637 5000268
0.17322083 0.43086219 1.0562069 5197647
0.10567977 0.44613835 1.0553842 4868682
0.11249468 0.44103068 1.0550067 4737096
0.097634025 0.45390734 1.0553414 4605510
0.10064366 0.45052436 1.0558496 5131854
0.13866982 0.42947215 1.066007 6118749
0.14469433 0.42866677 1.0647845 6184542
0.15455997 0.42815694 1.0641667 5855577
0.16442984 0.42901945 1.0647949 5723991
0.11625198 0.43784735 1.0650265 5987163
0.12477414 0.43376234 1.0651358 6052956
0.13330355 0.43084145 1.0646374 6118749
0.16958715 0.43019566 1.0620844 5263440
0.17486402 0.4313975 1.0650587 6118749
0.18041703 0.43319383 1.0694865 6645093
0.10471313 0.44594696 1.0649288 5658198
0.11116274 0.44100612 1.0641356 5592405
0.095788874 0.45484945 1.0653837 5395026
0.089757703 0.46230042 1.069863 5000268
0.09132988 0.46049488 1.0656846 5066061
0.13713442 0.42951098 1.0755739 6381921
0.14490576 0.4283821 1.0741408 6447714
0.15494502 0.42803782 1.0734984 6579300
0.16506261 0.42904931 1.0750638 6645093
0.11561663 0.43761137 1.0756109 5921370
0.12526327 0.43308493 1.0751212 6184542
0.1324366 0.43066603 1.0747402 6316128
0.17499432 0.43142721 1.0747057 6645093
0.18204579 0.43399945 1.0762775 6579300
0.099794313 0.44955736 1.0740089 5460819
0.10536256 0.44461495 1.07524 5658198
0.11129045 0.44032308 1.0727522 5921370
0.094983459 0.45476052 1.0752208 5263440
0.088374838 0.46363887 1.0765591 4934475
0.090357631 0.46053112 1.0770137 5066061
0.096473731 0.42916515 1.0865061 8158332
0.10249079 0.42908069 1.0871789 8355711
0.13658474 0.42933899 1.0853596 6381921
0.14514628 0.42815685 1.0838283 6513507
0.15469807 0.42791119 1.0842251 6579300
0.16541584 0.4291001 1.0850024 6645093
0.086726598 0.43602934 1.085627 7303023
0.094942696 0.43406948 1.0849974 8553090
0.1049419 0.43506375 1.0857793 8618883
0.11419819 0.43532488 1.085842 7960953
0.1241448 0.43281269 1.0849092 6842472
0.13165119 0.43056092 1.0842416 6316128
0.17519462 0.43162051 1.0849389 6645093
0.18500842 0.43560025 1.0850989 6579300
0.08549007 0.44507739 1.0849591 7500402
0.095230274 0.44597751 1.0852295 8158332
0.10384086 0.44372994 1.0841404 7303023
0.11033554 0.44036573 1.0823715 5789784
0.086637214 0.4547191 1.084824 7763574
0.093328208 0.45399183 1.0836431 7171437
0.086257793 0.46407473 1.0845357 6381921
0.083416678 0.47007751 1.0878608 4210752
0.095369287 0.42858037 1.0939866 6381921
0.10329958 0.42879805 1.0947233 6645093
0.13643125 0.42907059 1.095924 6381921
0.14560477 0.42792174 1.094256 6513507
0.15504456 0.42781252 1.0947341 6579300
0.16457966 0.42895401 1.0953461 6645093
0.085874729 0.43404654 1.0941908 5329233
0.1082229 0.43058804 1.0939182 6645093
0.11537069 0.43224913 1.0949624 6579300
0.12559105 0.4317449 1.094771 6381921
0.13179412 0.43022314 1.0929914 6316128
0.17481883 0.43161044 1.0948441 6645093
0.18564278 0.43513754 1.0951374 6842472
0.19405958 0.43609482 1.0951267 7631988
0.20201302 0.43372989 1.0977056 6316128
0.081724368 0.44406769 1.0914726 4013373
0.094445765 0.44337642 1.0934149 5987163
0.083816662 0.45852646 1.0930772 3355443
0.083840117 0.46457013 1.093383 3355443
0.082028888 0.47240636 1.0955397 4408131
0.13204509 0.42989117 1.1005505 6316128
0.1429929 0.42798901 1.1007652 6513507
0.15788125 0.42796561 1.1007051 6579300
0.16417995 0.4288545 1.1029912 6645093
0.12413573 0.43199235 1.100845 6381921
0.16986006 0.43011349 1.1011198 6645093
0.17509426 0.43176746 1.1028092 6645093
0.18419054 0.43468791 1.1036562 6645093
0.19463122 0.43518662 1.1031904 6447714
0.20470868 0.43307087 1.104234 6447714
