# .PCD v0.7 - Point Cloud Data file format
VERSION 0.7
FIELDS x y z
SIZE 4 4 4
TYPE F F F
COUNT 1 1 1
WIDTH 220
HEIGHT 1
VIEWPOINT 0 0 0 1 0 0 0
POINTS 220
DATA ascii
0.16288187 0.40638128 1.0765779
0.16379978 0.40551934 1.0795856
0.16464783 0.40466613 1.0832872
0.17161338 0.3989875 1.0921123
0.17364064 0.39737388 1.0940464
0.17559558 0.39576393 1.0967866
0.1787917 0.39320421 1.1000906
0.17927042 0.39254352 1.105087
0.17799017 0.39349401 1.1049784
0.17331891 0.39703491 1.1033995
0.16728757 0.40152702 1.1026554
0.16597162 0.40248048 1.1029257
0.1604183 0.40653166 1.103619
0.15755963 0.40866196 1.1032475
0.15340337 0.41174072 1.1030073
0.15224445 0.41265953 1.1019608
0.14986379 0.41450813 1.1004416
0.14865294 0.41543594 1.0998707
0.14741999 0.41636842 1.0994879
0.14615895 0.4173075 1.099335
0.14489841 0.41824618 1.0991821
0.14361238 0.41919124 1.0992308
0.14230323 0.42014241 1.0994569
0.1409937 0.42109385 1.0996832
0.13965952 0.4220522 1.1000921
0.13830085 0.42301774 1.1006778
0.13694085 0.4239842 1.1012641
0.13097122 0.42843449 1.1004608
0.12483018 0.43293437 1.100903
0.11607877 0.4394677 1.0995749
0.11328901 0.44155756 1.0990347
0.10556164 0.44722733 1.09947
0.099895664 0.45143199 1.0990198
0.09459281 0.45538339 1.0983355
0.085098885 0.46262494 1.0943962
0.08410608 0.46334434 1.094599
0.07867837 0.46723729 1.0963576
0.078148097 0.4677662 1.0941175
0.080648541 0.46632254 1.0876296
0.082784578 0.46503341 1.0829942
0.084816888 0.46379018 1.0788547
0.086933725 0.46251586 1.0742089
0.088996008 0.46126717 1.0697993
0.090998866 0.46004584 1.0656569
0.092951432 0.45884791 1.0617368
0.094867997 0.45766738 1.0579648
0.096609317 0.45655915 1.0551165
0.098599963 0.45535523 1.050838
0.10039529 0.45423105 1.0476018
0.10217047 0.45311737 1.0444368
0.10393101 0.45201191 1.0413133
0.10563303 0.45093149 1.0384839
0.10732379 0.44985771 1.0356812
0.10900044 0.44879162 1.0329227
0.11062528 0.44774732 1.0304304
0.11224227 0.44670808 1.0279502
0.11384939 0.4456746 1.0254942
0.11541414 0.44465885 1.0232577
0.1169643 0.44365036 1.0210778
0.11849969 0.44264913 1.0189569
0.12000562 0.44166034 1.0169863
0.12149656 0.44067866 1.0150799
0.12298044 0.43970117 1.0131898
0.12442857 0.43873796 1.0114959
0.12587197 0.43777791 1.0098075
0.12730476 0.43682307 1.0081614
0.12870292 0.43588158 1.0067127
0.13014197 0.43492752 1.0049791
0.13158974 0.43397212 1.0031629
0.13306585 0.43300891 1.0011337
0.13456529 0.43203992 0.99891961
0.13608995 0.43106478 0.99650359
0.13764846 0.43008098 0.99382311
0.13923383 0.42909116 0.99091882
0.14082295 0.428103 0.98794287
0.14241734 0.4271161 0.98488271
0.1439722 0.42614457 0.9820466
0.14549696 0.42518514 0.97937447
0.14696908 0.4242444 0.97702891
0.14842297 0.4233115 0.97477365
0.14984722 0.42238972 0.97269326
0.15125172 0.42147586 0.97072053
0.15262511 0.42057303 0.96894079
0.15398458 0.41967601 0.96723318
0.1553393 0.41878214 0.96553153
0.15668637 0.41789222 0.96385753
0.15800624 0.41701147 0.96235973
0.15932159 0.41613358 0.96086991
0.16063009 0.41525912 0.95940632
0.16192172 0.41439062 0.95804745
0.1632067 0.41352537 0.95671618
0.16448803 0.41266248 0.9553898
0.16575831 0.41180381 0.95412707
0.16701734 0.41094929 0.9529317
0.16827214 0.41009715 0.95174849
0.16952392 0.40924707 0.95056772
0.17076907 0.40839988 0.94941974
0.17200223 0.40755668 0.94835025
0.17323267 0.40671533 0.94728303
0.17446041 0.40587586 0.94621837
0.17568433 0.40503845 0.94516534
0.17689724 0.40420452 0.94418782
0.17810769 0.40337226 0.94321233
0.17931569 0.4025417 0.94223881
0.18052126 0.40171281 0.94126731
0.18171805 0.40088668 0.94035596
0.18290997 0.40006256 0.93947041
0.1840997 0.39923993 0.93858647
0.18528728 0.39841881 0.93770403
0.18647274 0.39759916 0.93682295
0.18764913 0.39678204 0.93600994
0.18882333 0.39596626 0.93520045
0.189997 0.39515167 0.93437839
0.19116397 0.39433905 0.93360466
0.1923296 0.39352766 0.93282706
0.19462171 0.39191216 0.93162233
0.1957764 0.39110485 0.93090892
0.1969265 0.39029902 0.93022698
0.19807506 0.38949427 0.92954576
0.19925156 0.38868868 0.92854387
0.20039506 0.38788655 0.92788064
0.20153417 0.38708565 0.92725015
0.20267183 0.38628575 0.92662036
0.20380796 0.38548693 0.92599154
0.20494197 0.38468912 0.92537189
0.20607316 0.38389233 0.92476928
0.20720296 0.38309655 0.92416739
0.20832865 0.38230169 0.92359906
0.2094523 0.38150772 0.92304075
0.21057345 0.38071463 0.92249864
0.21409182 0.37835184 0.91874939
0.21545833 0.37758496 0.91484523
0.21697271 0.37683997 0.90881628
0.21846646 0.37610483 0.90287369
0.2199084 0.37537548 0.89745766
0.22336616 0.37289923 0.8962757
0.22825518 0.36926258 0.89680314
0.23088244 0.36735696 0.89629716
0.23349936 0.36545148 0.89591205
0.23609929 0.36354202 0.89579546
0.23794922 0.36221489 0.89520037
0.24051842 0.36029309 0.8956517
0.24308994 0.35836977 0.89610022
0.24566251 0.35644394 0.89657623
0.2482332 0.3545129 0.89715987
0.25079167 0.35256496 0.89816374
0.2533319 0.35058647 0.89988166
0.25588012 0.34859863 0.90165651
0.26024058 0.34519771 0.90468222
0.26206535 0.34382197 0.90517783
0.26389027 0.34244084 0.90575969
0.2657131 0.34104675 0.90657586
0.26753658 0.33964241 0.90755093
0.26936141 0.3382259 0.90870804
0.27118868 0.33679646 0.9100458
0.27301937 0.3353526 0.91157544
0.27485502 0.33389512 0.91326809
0.27669615 0.33241922 0.91519415
0.27854422 0.33092362 0.91735679
0.28040075 0.32940981 0.91971326
0.282267 0.3278735 0.92231882
0.28414464 0.32630923 0.92524225
0.28603566 0.32471555 0.92848361
0.2879422 0.32308874 0.93207616
0.28986743 0.32141969 0.93613064
0.29180995 0.31973493 0.94023347
0.29679945 0.3157804 0.94471878
0.29984039 0.3134881 0.94553947
0.30287701 0.31122652 0.9459129
0.30589506 0.30902994 0.94545305
0.30891034 0.30683538 0.94499356
0.31192282 0.30464286 0.94453454
0.31493339 0.30245021 0.94410104
0.31793576 0.30027249 0.94352269
0.32094795 0.29806775 0.94326574
0.32398391 0.29581112 0.9435668
0.32707232 0.29345188 0.94490552
0.32801178 0.29259706 0.94753969
0.32782874 0.29258427 0.94993758
0.32768095 0.29249901 0.95309043
0.32754683 0.29238373 0.95656675
0.32608533 0.29310697 0.96231622
0.32599244 0.29289272 0.96690571
0.32467085 0.29327631 0.97649461
0.32338259 0.2939868 0.98037809
0.32094729 0.29551417 0.98472726
0.31875545 0.29642344 0.9961971
0.3143363 0.2992028 1.0039641
0.3100602 0.30210161 1.0080791
0.30697167 0.30403215 1.0137011
0.30162317 0.30811581 1.011416
0.2931073 0.31431395 1.01271
0.28369412 0.32137254 1.0107743
0.27634633 0.32671371 1.0120016
0.26897937 0.33206511 1.013292
0.25964954 0.33917567 1.0095149
0.25228095 0.34453234 1.0107392
0.24487662 0.34988701 1.0124238
0.23566478 0.35693452 1.0082587
0.22826202 0.36230141 1.009726
0.21911216 0.36927107 1.0060833
0.21173693 0.37464893 1.0070428
0.20427904 0.38003469 1.008864
0.19526628 0.3869316 1.0047609
0.19143243 0.38992336 1.002075
0.18612477 0.39379418 1.0027562
0.17868887 0.39918628 1.0042108
0.17125265 0.40459025 1.0054766
0.1622176 0.41140705 1.0029408
0.15456684 0.41687348 1.0057603
0.15015385 0.41957384 1.0147356
0.15102343 0.41837305 1.0238221
0.15344627 0.41617751 1.0304686
0.15490614 0.41479033 1.0355167
0.15634504 0.41339779 1.0409027
0.1588248 0.41113544 1.0479529
0.16015093 0.40973908 1.0547508
0.16142569 0.40833849 1.062232
0.16169113 0.4077923 1.0679218
0.16265829 0.40692955 1.0703532
