# .PCD v0.7 - Point Cloud Data file format
VERSION 0.7
FIELDS x y z
SIZE 4 4 4
TYPE F F F
COUNT 1 1 1
WIDTH 136
HEIGHT 1
VIEWPOINT 0 0 0 1 0 0 0
POINTS 136
DATA ascii
-0.28857183 0.054063957 1.1114976
-0.29182506 0.07120993 1.1114494
-0.2899119 0.073247284 1.1116188
-0.28995031 0.075269461 1.1116394
-0.29000306 0.077298731 1.1116589
-0.29007602 0.079338133 1.1116771
-0.29410532 0.081365153 1.1113938
-0.30010164 0.083380409 1.1109606
-0.30205861 0.083364338 1.1108114
-0.30806562 0.085384391 1.1103774
-0.31001812 0.085366771 1.1102284
-0.31606624 0.087404728 1.1097915
-0.31802639 0.087390639 1.1096421
-0.31998593 0.08737655 1.1094928
-0.32194608 0.08736299 1.1093433
-0.32391113 0.087351754 1.1091934
-0.32587567 0.087340511 1.1090437
-0.32784033 0.087329529 1.108894
-0.32980445 0.087318547 1.1087443
-0.33176279 0.087305397 1.108595
-0.33373436 0.087297849 1.1084447
-0.33570555 0.087290317 1.1082945
-0.33767638 0.087282762 1.1081444
-0.33964688 0.087275229 1.1079942
-0.34160727 0.087263882 1.1078447
-0.34357762 0.087256618 1.1076946
-0.34554765 0.087249354 1.1075445
-0.34751809 0.087242395 1.1073943
-0.35381091 0.09013804 1.1069487
-0.35542375 0.092005916 1.1068476
-0.35712397 0.093121476 1.1067312
-0.3603034 0.094810978 1.1065087
-0.36573422 0.098597832 1.1061392
-0.36773521 0.10458195 1.1060563
-0.36776003 0.1065839 1.1060778
-0.36779672 0.1085913 1.1060983
-0.36980367 0.11457989 1.1060152
-0.37182733 0.12057702 1.1059308
-0.37385586 0.12657781 1.1058462
-0.37586558 0.13057806 1.1057396
-0.37783733 0.13256714 1.1056126
-0.3798537 0.1365712 1.1055057
-0.38189656 0.14058965 1.1053969
-0.38385627 0.1425724 1.1052706
-0.38588715 0.14658555 1.1051626
-0.38784707 0.14856817 1.1050365
-0.38989264 0.15259008 1.1049274
-0.39180279 0.15255238 1.1047815
-0.39380324 0.15256374 1.1046294
-0.39579213 0.15256879 1.1044779
-0.39782506 0.15060385 1.1043003
-0.39787003 0.14863378 1.1042739
-0.3979198 0.14666554 1.1042472
-0.39798099 0.14470243 1.1042197
-0.39804834 0.14274158 1.1041918
-0.39614844 0.13679594 1.1042672
-0.39622542 0.13483712 1.1042386
-0.3943319 0.12888958 1.1043136
-0.39249668 0.1229647 1.1043844
-0.39055693 0.11898804 1.1044859
-0.38865763 0.11502744 1.1045845
-0.3867569 0.11106431 1.1046832
-0.3846879 0.10903044 1.104817
-0.38284299 0.10508806 1.1049117
-0.38099614 0.10114174 1.1050065
-0.37887925 0.099090666 1.1051438
-0.37589025 0.086744621 1.1052277
-0.37588161 0.084748439 1.1052052
-0.37654424 0.080339536 1.1051035
-0.379217 0.07260824 1.1048099
-0.38116592 0.070612527 1.1046383
-0.38311395 0.068617046 1.1044667
-0.38506448 0.066622712 1.1042949
-0.38701546 0.064628914 1.1041231
-0.38896626 0.062635496 1.1039515
-0.39091998 0.060643189 1.1037794
-0.39287651 0.058651887 1.1036073
-0.39483449 0.056661218 1.1034349
-0.39679262 0.054670855 1.1032627
-0.39875051 0.050692946 1.1030673
-0.40072399 0.048706226 1.1028938
-0.40268171 0.044728853 1.1026986
-0.40465993 0.040755372 1.1025016
-0.40663368 0.03678105 1.1023051
-0.40859896 0.032805532 1.1021091
-0.41055918 0.02882956 1.1019136
-0.41250205 0.024851926 1.1017194
-0.40873599 0.022881702 1.1019832
-0.40689614 0.02090583 1.1021004
-0.40504527 0.020917684 1.1022415
-0.40133566 0.022932999 1.1025474
-0.39943889 0.024933368 1.1027151
-0.39754301 0.02693503 1.1028829
-0.39565021 0.028938323 1.1030504
-0.39375636 0.030942753 1.1032178
-0.39186266 0.032948501 1.1033854
-0.38996828 0.034955453 1.1035531
-0.38808775 0.036966044 1.1037196
-0.38620898 0.038978517 1.1038861
-0.38433602 0.040993668 1.1040522
-0.38246167 0.043010328 1.1042185
-0.3805204 0.047013812 1.1044129
-0.37866995 0.049039327 1.1045774
-0.37670928 0.053042084 1.1047733
-0.37489322 0.055080242 1.1049353
-0.37296477 0.059094712 1.1051289
-0.37100214 0.06310185 1.105325
-0.3557944 0.067898855 1.106539
-0.35189915 0.065911375 1.1068125
-0.34800166 0.06392242 1.1070862
-0.34409744 0.06193069 1.1073604
-0.34018958 0.059937079 1.1076348
-0.33627802 0.057941586 1.1079094
-0.33236274 0.055944197 1.1081845
-0.3284463 0.053945616 1.1084595
-0.32454222 0.051949512 1.1087335
-0.32063386 0.049951203 1.109008
-0.31672114 0.047950685 1.1092826
-0.3128041 0.045947954 1.1095576
-0.30888277 0.04394301 1.109833
-0.30495706 0.04193585 1.1101086
-0.30102706 0.039926466 1.1103846
-0.29709268 0.037914861 1.1106608
-0.29315391 0.03590101 1.1109374
-0.2892108 0.033884939 1.1112142
-0.28526327 0.031866625 1.1114913
-0.28479204 0.033795953 1.1115496
-0.2846908 0.035806566 1.1115807
-0.28459603 0.037816737 1.1116114
-0.28450757 0.039826602 1.1116415
-0.28446501 0.04184733 1.1116682
-0.28444892 0.043874733 1.111693
-0.28443277 0.04590176 1.1117178
-0.28447056 0.047944985 1.1117388
-0.28453711 0.049998071 1.1117575
-0.28460366 0.052052487 1.1117764
