# .PCD v0.7 - Point Cloud Data file format
VERSION 0.7
FIELDS x y z
SIZE 4 4 4
TYPE F F F
COUNT 1 1 1
WIDTH 467
HEIGHT 1
VIEWPOINT 0 0 0 1 0 0 0
POINTS 467
DATA ascii
-0.10849974 0.16356066 1.1194912
-0.10653274 0.16161244 1.1201198
-0.10651772 0.15959691 1.1201756
-0.10649899 0.15758313 1.1202325
-0.10647929 0.15556931 1.1202896
-0.10645954 0.15355489 1.1203468
-0.10840528 0.14741722 1.1199307
-0.10838269 0.14540322 1.1199888
-0.10835715 0.14339018 1.1200477
-0.11028734 0.13726112 1.1196361
-0.1102511 0.13525213 1.1196979
-0.1121594 0.12913375 1.1192925
-0.11403167 0.12303224 1.1188972
-0.1159616 0.11893223 1.1184338
-0.117869 0.11484325 1.1179769
-0.11979271 0.11074731 1.1175152
-0.12182347 0.1086365 1.1169715
-0.12374686 0.10454395 1.1165099
-0.12388696 0.10043119 1.1165736
-0.12250441 0.094186991 1.1171397
-0.12263215 0.09211944 1.1171548
-0.11727784 0.081974551 1.1189891
-0.11542471 0.079963371 1.1195858
-0.11353678 0.077961043 1.1201923
-0.11164805 0.075958028 1.1207992
-0.10975812 0.073954374 1.1214064
-0.10786581 0.071950331 1.1220144
-0.10597119 0.069945842 1.122623
-0.10407566 0.067940578 1.1232319
-0.10217756 0.065934822 1.1238416
-0.10027084 0.063929588 1.1244538
-0.098361194 0.061923657 1.1250669
-0.096476711 0.057885032 1.1257244
-0.09456186 0.055877078 1.1263391
-0.0926615 0.051836919 1.1270013
-0.090731412 0.049827565 1.1276205
-0.088847801 0.045781795 1.128278
-0.08697331 0.041733909 1.1289328
-0.085016862 0.039721172 1.1295599
-0.086947218 0.037671931 1.1290441
-0.088812292 0.035625942 1.1285474
-0.090644777 0.03358053 1.1280603
-0.092467025 0.033567961 1.1275245
-0.094338074 0.035587337 1.1269225
-0.096208133 0.037606522 1.1263206
-0.099884748 0.039615337 1.1251875
-0.10175097 0.041634995 1.1245869
-0.10361704 0.043654535 1.1239862
-0.105483 0.04567394 1.1233857
-0.10734388 0.047693711 1.1227866
-0.10919624 0.049714383 1.12219
-0.11104871 0.051735196 1.1215934
-0.11289882 0.053756464 1.1209974
-0.11473872 0.055779424 1.1204044
-0.11656924 0.057804305 1.1198142
-0.11849065 0.061846118 1.1191456
-0.12030408 0.063874692 1.1185603
-0.12210769 0.065906391 1.1179777
-0.12401613 0.069948122 1.1173131
-0.13920411 0.074337885 1.1127319
-0.14322157 0.072197065 1.1116045
-0.14880583 0.068080038 1.1100662
-0.15275192 0.065962359 1.1089591
-0.15661213 0.063867182 1.1078765
-0.15836991 0.06183574 1.1074111
-0.16226335 0.059734028 1.1063191
-0.16613328 0.057638925 1.1052338
-0.16790029 0.055602085 1.1047658
-0.17177129 0.053507935 1.1036801
-0.17563796 0.051416133 1.1025957
-0.17741089 0.049374346 1.1021261
-0.18127586 0.04728407 1.1010422
-0.18513648 0.045196142 1.0999594
-0.18691808 0.043148834 1.0994873
-0.19077699 0.041062433 1.098405
-0.19463162 0.038978372 1.0973239
-0.19642186 0.036925569 1.0968494
-0.20027475 0.034843028 1.0957688
-0.20411585 0.032763224 1.0946916
-0.20598149 0.030702528 1.0941952
-0.20854577 0.024558838 1.0935974
-0.20859268 0.022524334 1.0936354
-0.20763773 0.018540427 1.0940181
-0.20765415 0.016522482 1.0940647
-0.20767061 0.014504638 1.0941113
-0.20768709 0.01248689 1.0941579
-0.20770355 0.010469243 1.0942045
-0.20772001 0.0084516853 1.0942512
-0.20773649 0.006434232 1.0942978
-0.20775294 0.0044168737 1.0943444
-0.20776941 0.0023996141 1.094391
-0.20778589 0.00038244948 1.0944376
-0.2098808 -0.0056227446 1.0939744
-0.20996252 -0.00761378 1.0940011
-0.21004403 -0.0096022366 1.0940278
-0.20669252 -0.018299174 1.0952358
-0.20684183 -0.020279899 1.0952424
-0.20699075 -0.022255577 1.0952489
-0.20708553 -0.024252355 1.0952719
-0.20710254 -0.026285322 1.0953188
-0.20711949 -0.028318213 1.0953658
-0.20713609 -0.030351162 1.0954127
-0.20715274 -0.032384008 1.0954596
-0.20716937 -0.034416758 1.0955065
-0.207186 -0.03644941 1.0955535
-0.20117161 -0.044834502 1.0975372
-0.19743696 -0.046840362 1.0986873
-0.19370311 -0.048845779 1.0998372
-0.18997017 -0.050850734 1.1009867
-0.18728669 -0.051338837 1.1017888
-0.18402405 -0.05304908 1.1027925
-0.18055925 -0.054887168 1.1038588
-0.17685877 -0.056872245 1.1049984
-0.17312831 -0.058875967 1.1061472
-0.16939873 -0.060879223 1.1072958
-0.16566995 -0.062882043 1.1084441
-0.16314816 -0.063255906 1.1091957
-0.15979791 -0.065029837 1.1102268
-0.15629223 -0.06689845 1.111306
-0.15256515 -0.068900466 1.1124537
-0.14883649 -0.07090348 1.113602
-0.14509326 -0.072915249 1.1147548
-0.14227682 -0.073454 1.1155972
-0.13534547 -0.07197763 1.1175992
-0.13153532 -0.069963947 1.118669
-0.13053012 -0.069494784 1.1189529
-0.12328968 -0.060119975 1.1208442
-0.1212991 -0.054043815 1.1212751
-0.11942481 -0.049954634 1.1217223
-0.11751582 -0.045879699 1.1221801
-0.11561485 -0.04180149 1.1226355
-0.1137779 -0.039738782 1.1231234
-0.1118471 -0.035670962 1.1235877
-0.10999341 -0.033615261 1.1240808
-0.1080531 -0.029548947 1.1245481
-0.10618491 -0.027498079 1.1250454
-0.1043151 -0.025448054 1.1255434
-0.1024441 -0.023398681 1.1260417
-0.10056791 -0.021350827 1.1265415
-0.098613948 -0.01728479 1.1270127
-0.096738249 -0.015236613 1.1275125
-0.094924301 -0.015211417 1.1280456
-0.09125635 -0.017202966 1.1291757
-0.089432105 -0.019213313 1.1297637
-0.089440033 -0.021245372 1.1298133
-0.091445759 -0.027328808 1.1293782
-0.093435004 -0.031378236 1.1288961
-0.095448256 -0.037449043 1.1284586
-0.097427912 -0.041492585 1.1279792
-0.099399813 -0.04553511 1.1275021
-0.10136975 -0.049574904 1.1270254
-0.10331421 -0.053621098 1.1265564
-0.10526292 -0.055632766 1.1260344
-0.10719744 -0.057648409 1.1255165
-0.10913968 -0.061688837 1.125048
-0.11107399 -0.063700952 1.1245302
-0.10941698 -0.078712657 1.1254007
-0.10946476 -0.080773935 1.1254392
-0.10946017 -0.082862839 1.1254938
-0.11103567 -0.087243319 1.1251419
-0.11219267 -0.096682012 1.1250422
-0.11046249 -0.10066189 1.1256528
-0.10853306 -0.10272564 1.1262732
-0.10663163 -0.10477205 1.1268849
-0.1048611 -0.10877578 1.127508
-0.10294186 -0.1108346 1.1281253
-0.10115564 -0.11484742 1.1287532
-0.09934248 -0.11887717 1.1293895
-0.097525001 -0.12290914 1.1300272
-0.095693126 -0.12695065 1.1306694
-0.093941808 -0.13297476 1.1313382
-0.092100859 -0.13702157 1.1319832
-0.092182368 -0.13900162 1.1320097
-0.09041889 -0.14502874 1.1326823
-0.094376862 -0.14692256 1.131566
-0.096339442 -0.14889829 1.1310389
-0.098254681 -0.14887246 1.1304747
-0.10012609 -0.14684427 1.1298723
-0.10200442 -0.1448105 1.1292677
-0.10394799 -0.14068732 1.1285906
-0.10583477 -0.13864753 1.1279833
-0.10772713 -0.13660346 1.1273744
-0.10961855 -0.13456035 1.1267657
-0.11152541 -0.13047092 1.1261003
-0.11341248 -0.12843215 1.125493
-0.11530319 -0.12639078 1.1248846
-0.11718864 -0.12232105 1.124226
-0.11906783 -0.1182574 1.1235694
-0.12094522 -0.11419632 1.1229134
-0.12280679 -0.11014789 1.1222624
-0.1246829 -0.10406011 1.1215551
-0.12653968 -0.097988248 1.1208538
-0.13077295 -0.093617782 1.1194967
-0.13371879 -0.09213078 1.1185919
-0.13741548 -0.090145767 1.1174535
-0.14437881 -0.088503405 1.1153626
-0.14630696 -0.088475317 1.1147945
-0.14823137 -0.088448882 1.1142275
-0.15014599 -0.088428453 1.1136637
-0.15572134 -0.090522915 1.1120765
-0.15764248 -0.090495139 1.1115105
-0.15955579 -0.090472341 1.1109469
-0.16145842 -0.090456963 1.1103866
-0.16336009 -0.09044157 1.1098267
-0.16526076 -0.090426207 1.109267
-0.16716054 -0.090410829 1.1087075
-0.16905624 -0.090398028 1.1081494
-0.17094664 -0.090388894 1.1075929
-0.17283627 -0.090379775 1.1070367
-0.1747252 -0.090370655 1.1064806
-0.17661339 -0.090361536 1.1059247
-0.17850077 -0.090352416 1.1053692
-0.18038151 -0.090348631 1.1048156
-0.18608224 -0.088248745 1.1030846
-0.18795936 -0.088245437 1.1025321
-0.18983626 -0.088241801 1.1019797
-0.19171117 -0.088239536 1.101428
-0.19738036 -0.086155951 1.0997066
-0.19925377 -0.08615236 1.0991553
-0.21070647 -0.096009254 1.0960367
-0.21050033 -0.098289087 1.0961555
-0.21268569 -0.10396801 1.0956573
-0.21488643 -0.10553345 1.0950496
-0.21886219 -0.10918498 1.0939729
-0.22062346 -0.11133122 1.0935093
-0.2245802 -0.11293937 1.0923861
-0.22839648 -0.11473481 1.091309
-0.23032071 -0.11458945 1.090739
-0.23587555 -0.11651976 1.0891536
-0.23774238 -0.11645989 1.0886028
-0.23956221 -0.11648852 1.088068
-0.24138243 -0.11651717 1.0875331
-0.24318069 -0.1165919 1.087006
-0.24857055 -0.1148293 1.085375
-0.25207934 -0.11319083 1.0843006
-0.25584069 -0.10894944 1.0830857
-0.25756931 -0.10719106 1.0825322
-0.25936499 -0.10324821 1.0819032
-0.26124179 -0.097084284 1.0811938
-0.27371794 -0.090097815 1.0773444
-0.27741683 -0.092149362 1.0763083
-0.27926901 -0.092140496 1.0757631
-0.28481856 -0.094188407 1.0741823
-0.28666872 -0.094180614 1.0736377
-0.29221669 -0.096233234 1.0720575
-0.29406455 -0.096229985 1.0715137
-0.29591185 -0.096226737 1.0709701
-0.29775873 -0.096223131 1.0704265
-0.303303 -0.098307967 1.0688483
-0.30514863 -0.09831205 1.0683053
-0.30699402 -0.098316148 1.0677623
-0.30883911 -0.098320246 1.0672195
-0.31068403 -0.09831886 1.0666766
-0.31252846 -0.098324358 1.066134
-0.31437272 -0.098335266 1.0655916
-0.31621689 -0.098346174 1.0650492
-0.31806099 -0.098357096 1.0645068
-0.32939824 -0.10052773 1.0612261
-0.33313751 -0.10243623 1.0601745
-0.34005532 -0.10368171 1.0581707
-0.3455514 -0.10951698 1.0567023
-0.34741956 -0.11547971 1.0563046
-0.34743464 -0.11747253 1.0563509
-0.34930444 -0.12344213 1.055953
-0.34932527 -0.12545878 1.0559983
-0.35117501 -0.12941512 1.055555
-0.35304508 -0.13538596 1.0551569
-0.3548857 -0.13737553 1.054666
-0.35674274 -0.14136255 1.0542214
-0.35860014 -0.14535101 1.0537765
-0.36044019 -0.14733954 1.0532858
-0.36229977 -0.15133601 1.0528405
-0.36413741 -0.1533166 1.0523503
-0.36599892 -0.15731953 1.0519047
-0.36783373 -0.15929109 1.051415
-0.3696999 -0.16330928 1.0509684
-0.37333229 -0.16130944 1.0498486
-0.37699878 -0.15941417 1.0487213
-0.3770009 -0.15747263 1.0486711
-0.37515706 -0.15157562 1.0490633
-0.37516063 -0.14963633 1.0490128
-0.37331736 -0.1437393 1.0494047
-0.37147343 -0.13783959 1.0497968
-0.36963755 -0.1319617 1.0501872
-0.36779186 -0.12801003 1.0506295
-0.36595237 -0.1240766 1.0510705
-0.36411184 -0.12014142 1.0515116
-0.36225301 -0.11810899 1.0520068
-0.36041966 -0.11419782 1.0524465
-0.35855535 -0.11214946 1.0529429
-0.35671997 -0.10823621 1.0533831
-0.35485545 -0.10618705 1.0538795
-0.35464811 -0.093852952 1.0536259
-0.35463202 -0.091856495 1.0535798
-0.35443038 -0.089341789 1.0535749
-0.35996237 -0.079769194 1.051703
-0.36176828 -0.077776507 1.0511208
-0.36358255 -0.075803071 1.0505365
-0.36539817 -0.073832311 1.049952
-0.36721587 -0.071865201 1.049367
-0.36900932 -0.067893907 1.048738
-0.37082365 -0.065921187 1.0481538
-0.37263823 -0.063948974 1.0475695
-0.37444195 -0.059995327 1.0469379
-0.37625927 -0.058026686 1.046353
-0.37806436 -0.054073814 1.0457209
-0.3798731 -0.050124399 1.0450881
-0.38168281 -0.046174709 1.0444547
-0.38349104 -0.042222187 1.0438218
-0.38530207 -0.038271215 1.0431882
-0.38711286 -0.034318641 1.0425545
-0.38527864 -0.03232564 1.0430434
-0.38165316 -0.03035125 1.0440599
-0.37985006 -0.028383631 1.0445403
-0.37804645 -0.030373018 1.0451218
-0.37624198 -0.032363325 1.0457035
-0.37443668 -0.034354545 1.0462855
-0.37263101 -0.03634721 1.0468676
-0.37082517 -0.038341518 1.0474499
-0.36901838 -0.040336847 1.0480324
-0.36721069 -0.042333156 1.0486153
-0.3654024 -0.044330932 1.0491984
-0.36359608 -0.04633389 1.049781
-0.36178893 -0.048338525 1.0503639
-0.35998181 -0.050346412 1.0509468
-0.3581734 -0.052355692 1.0515302
-0.35636684 -0.0563429 1.0521635
-0.35455984 -0.0583621 1.0527467
-0.35275126 -0.062350307 1.0533806
-0.35094589 -0.066347793 1.0540138
-0.34913564 -0.07033518 1.0546482
-0.34732491 -0.074322298 1.0552827
-0.34183955 -0.080251202 1.0570481
-0.33835429 -0.081043661 1.0580938
-0.3365224 -0.081129201 1.058635
-0.33097187 -0.083113343 1.0603189
-0.32539582 -0.082991362 1.0619565
-0.32167804 -0.081006356 1.063
-0.31795639 -0.079019442 1.0640444
-0.31423083 -0.077030435 1.0650899
-0.31235951 -0.075049803 1.06559
-0.30862725 -0.073057815 1.0666375
-0.30489093 -0.071063697 1.0676861
-0.30115062 -0.069067433 1.0687357
-0.29740629 -0.067069046 1.0697865
-0.29551995 -0.065088511 1.0702912
-0.29176834 -0.063085712 1.071344
-0.28801271 -0.061080758 1.0723979
-0.28425309 -0.059073657 1.0734531
-0.28048939 -0.057064403 1.0745094
-0.27858761 -0.055072378 1.0750182
-0.27481657 -0.053058669 1.0760764
-0.27104148 -0.051042803 1.0771358
-0.26687771 -0.042643625 1.0781468
-0.26689738 -0.040627439 1.0780896
-0.26691699 -0.038614169 1.0780325
-0.2669366 -0.036603812 1.0779755
-0.26695615 -0.034596369 1.0779185
-0.26697004 -0.032599181 1.0778635
-0.26697543 -0.030615134 1.0778112
-0.26855266 -0.024970211 1.0772032
-0.26856419 -0.022974042 1.0771489
-0.26856041 -0.020996759 1.0770996
-0.26855665 -0.019020351 1.0770503
-0.26855397 -0.017043702 1.0770006
-0.26855159 -0.015067792 1.0769509
-0.26854917 -0.01309288 1.0769013
-0.26854676 -0.011118966 1.0768516
-0.26854435 -0.0091460468 1.076802
-0.26854196 -0.0071741268 1.0767524
-0.26853958 -0.0052032042 1.0767028
-0.26931694 -0.0019632224 1.0763915
-0.26930201 4.4761226e-05 1.0763447
-0.26928708 0.0020528529 1.0762979
-0.26927221 0.0040610358 1.076251
-0.26925725 0.0060693119 1.0762042
-0.26924235 0.0080776922 1.0761573
-0.26922745 0.010086164 1.0761105
-0.26921248 0.012094729 1.0760636
-0.26919758 0.014103394 1.0760169
-0.26918262 0.016112149 1.0759701
-0.26846644 0.020322192 1.0760734
-0.26973867 0.026171148 1.0755498
-0.26991227 0.028146897 1.0754484
-0.27000761 0.030110907 1.0753702
-0.27000248 0.032076575 1.0753216
-0.26999736 0.034041468 1.0752729
-0.2699922 0.036005579 1.0752244
-0.26998711 0.037968919 1.0751758
-0.26998198 0.039931487 1.0751272
-0.26997578 0.041893642 1.0750791
-0.26996943 0.043855187 1.0750309
-0.26996312 0.045816075 1.0749828
-0.26995671 0.0477763 1.0749346
-0.26995042 0.049735855 1.0748864
-0.26994401 0.051694762 1.0748384
-0.26993769 0.053653013 1.0747904
-0.26992962 0.055611756 1.0747428
-0.26991379 0.057575498 1.0746974
-0.269898 0.059539441 1.0746518
-0.26988217 0.061503585 1.0746064
-0.26647621 0.0633194 1.0755624
-0.26470995 0.063308522 1.0760823
-0.26294604 0.063297659 1.0766016
-0.26092911 0.063466012 1.0771909
-0.25869006 0.063774645 1.0778419
-0.2522344 0.061398599 1.079802
-0.25043502 0.06141464 1.0803312
-0.24863353 0.061431687 1.0808609
-0.24683098 0.061449107 1.0813907
-0.24502499 0.061468046 1.0819217
-0.24321844 0.061486993 1.0824529
-0.24140772 0.061507698 1.0829852
-0.23959562 0.061528664 1.0835178
-0.23777969 0.061551068 1.0840516
-0.23226309 0.063593656 1.0856228
-0.23040651 0.063632473 1.0861681
-0.22853453 0.063676909 1.0867178
-0.2266594 0.063721418 1.0872685
-0.22475517 0.063776776 1.0878273
-0.22274102 0.063875392 1.0884175
-0.22071755 0.06397447 1.0890105
-0.2185711 0.064118624 1.0896384
-0.21327247 0.062767833 1.0912319
-0.20359868 0.077058285 1.093714
-0.20356275 0.079085439 1.0936729
-0.2035168 0.08111833 1.0936346
-0.20345055 0.083162859 1.0936019
-0.19777909 0.085264042 1.0952172
-0.19209619 0.087369964 1.0968357
-0.18826815 0.089464873 1.0979087
-0.1864014 0.089480698 1.0984576
-0.18068369 0.09160161 1.100086
-0.17880923 0.091620311 1.1006371
-0.17305793 0.093755394 1.102275
-0.1711733 0.09377782 1.102829
-0.16929032 0.093799278 1.1033825
-0.1674166 0.09381628 1.1039335
-0.16554242 0.093833432 1.1044846
-0.16365983 0.093854263 1.1050379
-0.16177449 0.093876153 1.1055921
-0.15988871 0.093898043 1.1061465
-0.15800311 0.093919665 1.1067008
-0.15612698 0.093937054 1.1072524
-0.15424459 0.093957007 1.1078058
-0.1523596 0.093977913 1.1083599
-0.15047778 0.093997374 1.1089132
-0.14598197 0.095606804 1.110195
-0.14333349 0.097961918 1.1109143
-0.14142692 0.1000127 1.111423
-0.13951975 0.10206413 1.1119319
-0.13838837 0.10377489 1.1122212
-0.13404928 0.11214119 1.1132846
-0.13208401 0.1182557 1.1137069
-0.13205497 0.12028757 1.1136637
-0.13202351 0.12232105 1.1136211
-0.13198557 0.12435842 1.1135802
-0.13001502 0.13048281 1.1140039
-0.12997225 0.13252485 1.1139644
-0.12803152 0.13661836 1.114431
-0.1260286 0.14276999 1.1148635
-0.12406752 0.14688057 1.1153358
-0.12208618 0.1510063 1.1158136
-0.1201736 0.15306896 1.1163237
-0.11820307 0.15719077 1.1167984
-0.11622224 0.16132173 1.117276
-0.11424701 0.16545112 1.1177518
