# .PCD v0.7 - Point Cloud Data file format
VERSION 0.7
FIELDS x y z
SIZE 4 4 4
TYPE F F F
COUNT 1 1 1
WIDTH 242
HEIGHT 1
VIEWPOINT 0 0 0 1 0 0 0
POINTS 242
DATA ascii
-0.093539178 0.037314046 1.12884
-0.087285206 0.038256194 1.1293669
-0.088137746 0.043147027 1.1294175
-0.096740261 0.054690834 1.1290063
-0.098770142 0.061848368 1.1290175
-0.10566995 0.065013878 1.1285387
-0.10885748 0.07190372 1.1284502
-0.11825754 0.080620803 1.1279055
-0.12366533 0.088501662 1.1276622
-0.12309362 0.095627591 1.1278822
-0.12597457 0.10176069 1.1277999
-0.12766442 0.10625882 1.1277735
-0.1254915 0.1151031 1.1281645
-0.11915683 0.11923153 1.1287758
-0.11793543 0.12604211 1.1290405
-0.11645265 0.13563149 1.1293942
-0.11528152 0.14555474 1.1297308
-0.10909231 0.15674143 1.1305026
-0.10909525 0.16175686 1.1306249
-0.11493492 0.16278003 1.1301793
-0.12229497 0.15322313 1.1293529
-0.12447155 0.1445471 1.1289656
-0.1317907 0.13299918 1.128094
-0.13279261 0.12404484 1.1277946
-0.13355227 0.11401869 1.1274886
-0.14091092 0.10273107 1.1266201
-0.14380339 0.10092555 1.1263429
-0.14579716 0.096179172 1.1260663
-0.15522644 0.092226595 1.12521
-0.165295 0.092239693 1.1243991
-0.17534146 0.092222519 1.123589
-0.18488917 0.091024891 1.1227905
-0.19332832 0.0900774 1.1220874
-0.20321441 0.085887387 1.1211884
-0.2111228 0.082763992 1.1204749
-0.2110388 0.078660265 1.1203815
-0.20503268 0.077650622 1.1208408
-0.20190261 0.061122317 1.1206894
-0.22058947 0.062238533 1.119211
-0.22345141 0.061814446 1.1189699
-0.22939008 0.061817829 1.1184915
-0.23758104 0.061011229 1.1178118
-0.2477102 0.060580309 1.1169851
-0.2573207 0.060556274 1.1162101
-0.26543012 0.063715138 1.1156338
-0.27477556 0.061063487 1.114816
-0.28715304 0.05268712 1.1136141
-0.29503217 0.054267529 1.1130178
-0.30835113 0.062160406 1.1121373
-0.29538789 0.075407356 1.1135054
-0.29009154 0.073199131 1.1138781
-0.29624385 0.081315137 1.1135806
-0.30495459 0.082450718 1.1129065
-0.31544238 0.083774365 1.1120937
-0.32489201 0.084748857 1.111356
-0.33522344 0.086320274 1.1105618
-0.34500352 0.086888559 1.1097877
-0.35392761 0.090259932 1.1091509
-0.35554862 0.092107542 1.1090654
-0.36739099 0.098091334 1.1082573
-0.36894906 0.10451922 1.1082886
-0.36997569 0.11249777 1.1084007
-0.37690616 0.1241032 1.1081257
-0.37888855 0.1324898 1.1081706
-0.38733977 0.14368251 1.1077629
-0.3900755 0.15150742 1.1077336
-0.39459884 0.15137056 1.1073657
-0.39494598 0.1447991 1.1071774
-0.39326864 0.13470747 1.1070662
-0.39169496 0.12564433 1.1069716
-0.39073479 0.11897454 1.1068861
-0.38451803 0.11484427 1.1072862
-0.38192713 0.10610102 1.1072816
-0.37366605 0.094732143 1.1076696
-0.37345126 0.083871603 1.1074218
-0.38132107 0.070544437 1.1064622
-0.3845115 0.063773274 1.1060398
-0.39105976 0.060584281 1.1054343
-0.39392576 0.053860504 1.1050391
-0.40194094 0.043585569 1.1041424
-0.40421665 0.034303844 1.1037325
-0.41114771 0.026319988 1.1029791
-0.40512311 0.025410779 1.1034423
-0.3982138 0.027582709 1.1040521
-0.39523605 0.035099868 1.1044755
-0.3881247 0.038450614 1.1051303
-0.38577074 0.04529338 1.1054871
-0.37877917 0.049049906 1.1061422
-0.37691569 0.0562759 1.1064688
-0.36910695 0.068094298 1.1073866
-0.35973755 0.069999598 1.108188
-0.35256642 0.066690117 1.1086851
-0.3432959 0.063790284 1.1093613
-0.34027404 0.060085017 1.1095144
-0.33323422 0.058568213 1.1100446
-0.32070854 0.050118972 1.1108476
-0.313245 0.048221674 1.1114026
-0.30405495 0.046470445 1.1121004
-0.29994538 0.040072005 1.1122754
-0.29124066 0.035095602 1.1128552
-0.28531832 0.032076266 1.1132587
-0.2803472 0.014094531 1.1132202
-0.28030914 0.0050504971 1.1130025
-0.28028372 -0.00097789802 1.1128573
-0.27414373 -0.014335082 1.113026
-0.27424893 -0.019240573 1.1128978
-0.27434376 -0.023170155 1.1127942
-0.27205479 -0.037907753 1.1126188
-0.2818045 -0.0489209 1.1115643
-0.29316518 -0.057194684 1.1104468
-0.30086777 -0.059454106 1.109771
-0.31231615 -0.067618974 1.1086491
-0.31935522 -0.069429278 1.1080377
-0.32389849 -0.075515896 1.107523
-0.3331874 -0.078712732 1.1066965
-0.33672029 -0.081363164 1.1063471
-0.34485817 -0.082579471 1.1056616
-0.35063449 -0.081314273 1.1052271
-0.35354552 -0.079880185 1.1050276
-0.35464478 -0.079293713 1.1049533
-0.35743186 -0.07885693 1.1047393
-0.36746982 -0.066240311 1.1042385
-0.37571406 -0.055291709 1.1038415
-0.37799579 -0.048339225 1.1038275
-0.38511676 -0.045033008 1.1033344
-0.38816699 -0.037500754 1.1032726
-0.39709938 -0.028353278 1.1027761
-0.40183038 -0.034203384 1.102252
-0.40055454 -0.040759791 1.1021948
-0.39437973 -0.044491034 1.1026013
-0.39202017 -0.053772293 1.1025647
-0.38384926 -0.063789792 1.1029786
-0.38130248 -0.0712412 1.1030018
-0.37445208 -0.07414303 1.103483
-0.37080848 -0.080538861 1.1036204
-0.36702073 -0.093249135 1.1036153
-0.37104708 -0.10672119 1.1029619
-0.37400615 -0.11520276 1.1025164
-0.37985376 -0.11864515 1.1019611
-0.38215065 -0.12617259 1.1015923
-0.38357848 -0.13469638 1.1012691
-0.39083344 -0.1481948 1.1003549
-0.39115563 -0.15491471 1.1001649
-0.38455388 -0.16198184 1.1005243
-0.37796739 -0.15072608 1.1013298
-0.3757987 -0.14334042 1.1016849
-0.36796042 -0.13278024 1.1025743
-0.36624438 -0.12395662 1.102928
-0.36526963 -0.11423839 1.1032439
-0.35621133 -0.10348166 1.1042365
-0.34985048 -0.10066912 1.1048176
-0.34742469 -0.098212235 1.1050731
-0.33128309 -0.097079612 1.1064014
-0.32533541 -0.097098775 1.1068803
-0.31610376 -0.09585765 1.1076545
-0.30541518 -0.093728483 1.1085677
-0.29626608 -0.091911316 1.1093493
-0.28864592 -0.091205671 1.1099806
-0.26991403 -0.088620499 1.1115531
-0.26812279 -0.095145382 1.1115381
-0.2643207 -0.10466356 1.1116121
-0.26006138 -0.10850497 1.1118615
-0.25588262 -0.11296809 1.1120892
-0.24525769 -0.11647862 1.1128596
-0.23528939 -0.11456963 1.1137094
-0.22849922 -0.11159804 1.1143292
-0.21862307 -0.10340682 1.115325
-0.21653058 -0.095473915 1.1156873
-0.20257644 -0.083653092 1.1171002
-0.19442782 -0.084559813 1.1177348
-0.18229297 -0.089406937 1.1185942
-0.17483398 -0.089982115 1.1191812
-0.16486973 -0.090075649 1.1199819
-0.15889448 -0.090144165 1.1204616
-0.15442665 -0.085324764 1.1209394
-0.14567193 -0.084829859 1.1216569
-0.13434419 -0.09064392 1.1224277
-0.12711915 -0.092982329 1.1229527
-0.12221307 -0.10372835 1.1230857
-0.12099864 -0.11177167 1.1229872
-0.11283384 -0.12387666 1.1233495
-0.11043829 -0.13060717 1.1233783
-0.10395075 -0.13430354 1.1238108
-0.10087331 -0.14239547 1.1238611
-0.094614938 -0.14436916 1.1243173
-0.088277459 -0.14518854 1.1248078
-0.095018968 -0.13546097 1.1245022
-0.096938401 -0.12582955 1.1245826
-0.098426536 -0.11888546 1.1246324
-0.10482357 -0.11494985 1.124213
-0.10728228 -0.10639295 1.1242237
-0.11632925 -0.095538892 1.1237597
-0.11591491 -0.082188144 1.1241192
-0.11522192 -0.077308603 1.1242942
-0.10856551 -0.061829902 1.1252084
-0.10628837 -0.054620821 1.1255679
-0.098051369 -0.043156292 1.1265116
-0.096425116 -0.035022356 1.1268412
-0.094734028 -0.025254596 1.127216
-0.088518173 -0.02137419 1.1278116
-0.088522211 -0.019343603 1.1278608
-0.094751596 -0.01780531 1.1273965
-0.10331544 -0.026760124 1.1264877
-0.11196126 -0.037322231 1.1255332
-0.11435297 -0.04594633 1.1251298
-0.12078606 -0.049757518 1.1245184
-0.12195804 -0.056638304 1.124256
-0.13049819 -0.069688022 1.1232493
-0.13269709 -0.069882713 1.1230673
-0.13513553 -0.070290454 1.1228609
-0.14398125 -0.074326493 1.1220496
-0.15348069 -0.072393097 1.1213313
-0.15739557 -0.068146653 1.1211195
-0.16440272 -0.066645697 1.1205915
-0.17389303 -0.064581089 1.1198772
-0.18492234 -0.056755267 1.1191796
-0.19443983 -0.054469809 1.1184685
-0.20614538 -0.047353987 1.117699
-0.21588826 -0.035352599 1.1172069
-0.21594208 -0.025180504 1.117451
-0.21627614 -0.018034812 1.1175985
-0.2163769 -0.015160305 1.1176606
-0.21671759 -0.0050568106 1.1178799
-0.21553296 0.0042029181 1.1182014
-0.21586765 0.015929129 1.1184608
-0.21808796 0.024338339 1.1184871
-0.21811992 0.024697203 1.1184933
-0.21835178 0.028867699 1.1185764
-0.21517596 0.036946055 1.1190296
-0.20705721 0.039499816 1.1197462
-0.19566831 0.047046397 1.1208482
-0.18485788 0.055379082 1.1219226
-0.1766277 0.05792312 1.122648
-0.16479534 0.066591538 1.123813
-0.15697408 0.069061704 1.1245036
-0.14491554 0.077766888 1.1256878
-0.13115977 0.077338144 1.1267858
-0.1225995 0.065901972 1.1271963
-0.11363193 0.056401808 1.127687
-0.11089717 0.049871441 1.1277479
-0.103966 0.04660254 1.1282265
-0.1007673 0.039686278 1.1283154
