# .PCD v0.7 - Point Cloud Data file format
VERSION 0.7
FIELDS x y z
SIZE 4 4 4
TYPE F F F
COUNT 1 1 1
WIDTH 279
HEIGHT 1
VIEWPOINT 0 0 0 1 0 0 0
POINTS 279
DATA ascii
0.3236388 0.15640004 0.99626946
0.32392207 0.16506395 0.9964903
0.32439205 0.16646439 0.99668175
0.33231971 0.16736124 0.99960542
0.34088582 0.1657436 1.0027297
0.34974387 0.17082319 1.0060513
0.3512421 0.17053615 1.0065978
0.36099553 0.16512871 1.0101069
0.36976293 0.17151625 1.013413
0.37825114 0.17133744 1.016528
0.38672638 0.17115892 1.0196383
0.39564574 0.17141059 1.0229174
0.40467048 0.17111358 1.026228
0.4086566 0.17143187 1.0276961
0.41665265 0.1717535 1.0306371
0.42512977 0.17242818 1.0337596
0.43000606 0.17281629 1.0355557
0.43726477 0.17232031 1.0382149
0.44956678 0.17256515 1.0427363
0.45613694 0.17185479 1.0451398
0.4598304 0.17254591 1.0465056
0.46653962 0.17182922 1.04896
0.47067195 0.1736016 1.0505015
0.47600287 0.16860165 1.052392
0.4867239 0.16004419 1.0562141
0.4930023 0.16029818 1.0585234
0.50248331 0.16087334 1.0620131
0.50978529 0.16133964 1.0647012
0.5146783 0.16165209 1.0665025
0.52203345 0.16115808 1.0691971
0.53193229 0.1617865 1.072841
0.53815496 0.16218154 1.0751318
0.54441381 0.16257888 1.0774357
0.55348933 0.16222112 1.0807641
0.56365436 0.16206822 1.0844953
0.57440847 0.16252252 1.088451
0.57992095 0.16240661 1.090474
0.58591777 0.16289307 1.092683
0.59345746 0.16350468 1.0954603
0.59972799 0.16344249 1.0977625
0.60710263 0.16260755 1.1004596
0.61330515 0.16311067 1.1027443
0.61847448 0.16358468 1.1046493
0.62743801 0.1636693 1.1079423
0.63887292 0.16399802 1.1121465
0.6482172 0.16426302 1.1155819
0.65353632 0.16371784 1.1175281
0.66073722 0.16436635 1.1201814
0.66030091 0.15505166 1.1198957
0.65981644 0.1447129 1.1195784
0.65955418 0.1348588 1.1193492
0.67169511 0.12877749 1.1237262
0.6777513 0.12807396 1.1259409
0.67080808 0.12785083 1.1233879
0.66815239 0.12694432 1.1224004
0.66434681 0.12759751 1.1210115
0.66132808 0.12728564 1.1198987
0.65863705 0.12657455 1.1189008
0.65508997 0.12664263 1.117599
0.65298343 0.12676309 1.1168269
0.64976281 0.12643512 1.1156397
0.64781404 0.12615234 1.1149201
0.64180189 0.1261249 1.1127117
0.63974863 0.12583841 1.1119537
0.63439637 0.12563017 1.1099852
0.63257289 0.12576617 1.1093174
0.62772566 0.12536992 1.1075318
0.62563485 0.12569836 1.1067684
0.62208223 0.12535766 1.105459
0.61843377 0.12500747 1.1041144
0.61183333 0.12475082 1.1016868
0.60658419 0.1245476 1.0997562
0.60258633 0.12459751 1.0982887
0.59743822 0.12419353 1.0963924
0.59490752 0.12449861 1.0954671
0.59102482 0.12414904 1.0940365
0.58704817 0.12379129 1.0925711
0.58355129 0.12405705 1.0912905
0.580818 0.12375323 1.0902824
0.5767234 0.12339129 1.0887738
0.57446957 0.12350705 1.0879476
0.56940651 0.12331003 1.0860854
0.56773376 0.12304191 1.0854675
0.56480658 0.12332819 1.0843964
0.56006992 0.12274404 1.0826489
0.55498004 0.12254622 1.0807768
0.55055511 0.12257577 1.0791521
0.54864526 0.12230001 1.078447
0.54503131 0.12255649 1.0771232
0.54107207 0.12200567 1.0756617
0.53645861 0.12222219 1.0739702
0.53158045 0.12203196 1.072176
0.53069651 0.12180266 1.0718483
0.52550834 0.12179519 1.0699427
0.52454013 0.12156302 1.069584
0.521667 0.12183449 1.0685325
0.5168997 0.12164831 1.0667791
0.51583976 0.12141836 1.0663867
0.51096588 0.12141671 1.0645968
0.50982666 0.12118419 1.0641752
0.50740004 0.12146061 1.0632877
0.50510669 0.12172318 1.062449
0.50151747 0.12104818 1.0611217
0.49934888 0.12132384 1.060329
0.49563935 0.12081893 1.0589597
0.49462396 0.12096152 1.0585887
0.49135226 0.12101103 1.0573878
0.48680091 0.12083297 1.0557139
0.48141068 0.10378114 1.0535045
0.48026377 0.10068583 1.0530415
0.48295045 0.088134997 1.053859
0.48103815 0.083024219 1.0530878
0.48448932 0.072498962 1.0542135
0.4864119 0.057881448 1.0547225
0.4879494 0.042257357 1.0550766
0.48373595 0.036180697 1.0534472
0.48237479 0.024457199 1.0527893
0.48315465 0.014806163 1.0529457
0.48408172 0.0051401928 1.0531559
0.48501098 -0.0045481194 1.0533667
0.48594242 -0.014258852 1.0535778
0.4831655 -0.024902953 1.0524145
0.48818654 -0.037655972 1.0540867
0.48856184 -0.041567966 1.0541718
0.48222214 -0.0549367 1.0516632
0.49112818 -0.066571407 1.0547773
0.49415457 -0.066388309 1.0558913
0.49757862 -0.066181146 1.0571516
0.50098056 -0.065975323 1.0584037
0.50445968 -0.066713668 1.0596715
0.50952882 -0.066152833 1.0615408
0.51256895 -0.065966189 1.0626599
0.51600778 -0.065755099 1.0639257
0.52196068 -0.065389805 1.0661169
0.52573997 -0.06515751 1.0675081
0.5290606 -0.064953126 1.0687304
0.5323571 -0.064750217 1.0699438
0.53593361 -0.065277681 1.0712502
0.53935546 -0.065064378 1.0725098
0.54231977 -0.064879529 1.073601
0.54526109 -0.064695731 1.0746837
0.54817486 -0.06451349 1.0757563
0.55189037 -0.064281084 1.077124
0.55475456 -0.064101934 1.0781783
0.55799901 -0.063899025 1.0793726
0.56121731 -0.063697718 1.0805573
0.56440496 -0.063498348 1.0817307
0.56926 -0.063994728 1.0835072
0.57255888 -0.063784733 1.0847216
0.57542455 -0.063602179 1.0857764
0.57866347 -0.063395664 1.0869688
0.58427364 -0.063038714 1.089034
0.58745295 -0.062837608 1.0902044
0.59059787 -0.062638812 1.0913621
0.59372187 -0.062441327 1.0925121
0.59772462 -0.063045852 1.093974
0.60055518 -0.062861815 1.095016
0.60336578 -0.062679611 1.0960507
0.60616302 -0.062499329 1.0970805
0.60933089 -0.062295191 1.0982467
0.61247194 -0.062092774 1.099403
0.61519527 -0.06191726 1.1004056
0.61789811 -0.061743096 1.1014006
0.62095892 -0.061545864 1.1025274
0.62399423 -0.061350234 1.1036447
0.62739068 -0.062058263 1.1048826
0.63016903 -0.061875306 1.1059055
0.63292313 -0.061693922 1.1069194
0.63565558 -0.061513968 1.1079254
0.63836491 -0.061335593 1.1089228
0.64104027 -0.061157927 1.1099077
0.64406252 -0.060956396 1.1110204
0.64706624 -0.060756996 1.1121264
0.6496731 -0.060584292 1.1130861
0.65226001 -0.060412928 1.1140385
0.6551975 -0.060219325 1.1151199
0.65776008 -0.060051836 1.1160634
0.64949757 -0.065334238 1.1129576
0.64931381 -0.075352572 1.1127551
0.64906448 -0.084881544 1.112535
0.64908212 -0.093968362 1.112419
0.65012622 -0.10007506 1.1127203
0.64658689 -0.099897228 1.1114228
0.63421309 -0.10127702 1.1068597
0.62557214 -0.10083506 1.1036921
0.61523986 -0.10084108 1.0998974
0.60619009 -0.10150982 1.0965647
0.59618038 -0.10143726 1.0928894
0.59166974 -0.10122638 1.0912356
0.58416843 -0.10185199 1.0884722
0.57674479 -0.10150138 1.0857506
0.57041734 -0.10161763 1.083425
0.56212646 -0.10275013 1.0803648
0.55568212 -0.1024901 1.0780016
0.55066419 -0.10229545 1.0761613
0.54266441 -0.10255998 1.0732197
0.5339781 -0.10241301 1.0700315
0.5280441 -0.10275301 1.0678476
0.52092868 -0.10256746 1.0652368
0.51114595 -0.10360389 1.06163
0.50179982 -0.10325693 1.0582021
0.49224612 -0.10363536 1.0546883
0.48045978 -0.11592955 1.0501939
0.48092192 -0.12083562 1.0502975
0.47348651 -0.12095896 1.0475651
0.466162 -0.12108024 1.0448734
0.45894605 -0.12119996 1.0422217
0.45192263 -0.12227096 1.0396277
0.44818592 -0.12233951 1.0382544
0.4435612 -0.12158876 1.036566
0.43508324 -0.12163288 1.0334518
0.42846462 -0.12227225 1.0310124
0.42340016 -0.12255605 1.0291486
0.41439706 -0.12252759 1.0258424
0.40437958 -0.12258088 1.0221627
0.39581347 -0.1225974 1.0190164
0.38733146 -0.12262943 1.0159007
0.37854382 -0.12303444 1.0126679
0.37037054 -0.12362345 1.0096582
0.36318463 -0.12389081 1.0070155
0.3596977 -0.12425639 1.0057299
0.35063291 -0.12822543 1.0023472
0.33888051 -0.12906851 0.99801964
0.33625388 -0.12892021 0.99705696
0.33499652 -0.12375002 0.99666488
0.33499163 -0.12345081 0.99666709
0.33447313 -0.11775678 0.99655342
0.33410376 -0.11433039 0.99646395
0.33395073 -0.11177459 0.9964422
0.3330816 -0.10373815 0.99623132
0.33199623 -0.094727345 0.99595416
0.33223754 -0.093528785 0.99605888
0.33218211 -0.086154297 0.99613792
0.3311078 -0.083670519 0.99577689
0.32969302 -0.073622562 0.99539268
0.32908583 -0.063655056 0.99530405
0.32850927 -0.054306716 0.99521828
0.3277286 -0.052556738 0.99495518
0.32705027 -0.044369124 0.99481642
0.32653359 -0.041135214 0.99467021
0.32573336 -0.033145823 0.99448401
0.32566497 -0.032548256 0.99446696
0.32521766 -0.027227381 0.99437439
0.32472554 -0.023329241 0.99424618
0.32470286 -0.021319872 0.9942649
0.32401782 -0.013458183 0.99411929
0.3237679 -0.012961784 0.99403417
0.32260856 -0.0035909284 0.99373472
0.32290083 0.0037220437 0.99394065
0.3218478 0.0064425319 0.99359053
0.32054389 0.016130658 0.99324226
0.3203291 0.025979558 0.99329609
0.32054806 0.035854429 0.99350959
0.32076716 0.045737855 0.99372327
0.32119709 0.056411404 0.99402505
0.32231045 0.060750268 0.99449241
0.32156238 0.066118397 0.99429005
0.32190433 0.076366082 0.99455374
0.32229 0.086633407 0.99483377
0.32217538 0.096999802 0.9949314
0.3229267 0.10587145 0.99532694
0.32243922 0.10723167 0.99516618
0.32274711 0.11667477 0.99540657
0.32296708 0.12659244 0.99562103
0.32318729 0.13651869 0.99583566
0.3234078 0.14645362 0.9960506
0.32412803 0.15458037 0.99642462
0.68843991 0.13137333 1.1299109
0.69347012 0.13123508 1.1317565
0.70108652 0.13221684 1.134567
0.70164216 0.13158388 1.1347625
0.71212244 0.12886402 1.138575
0.70469439 0.12887967 1.1358471
0.70171499 0.12943231 1.1347604
0.70078164 0.12950015 1.1344185
0.69683242 0.12976603 1.1329716
0.69440663 0.12938993 1.1320757
0.69027901 0.12841831 1.1305466
0.68643975 0.12876011 1.1291412
