# .PCD v0.7 - Point Cloud Data file format
VERSION 0.7
FIELDS x y z
SIZE 4 4 4
TYPE F F F
COUNT 1 1 1
WIDTH 822
HEIGHT 1
VIEWPOINT 0 0 0 1 0 0 0
POINTS 822
DATA ascii
0.64772248 -0.099143162 1.0889266
0.64060587 -0.10082426 1.0870458
0.6371097 -0.10066239 1.0861452
0.63362646 -0.10050114 1.0852479
0.63015628 -0.10034049 1.0843539
0.62678587 -0.10018858 1.0834856
0.62366986 -0.10005999 1.0826825
0.61740112 -0.10178094 1.0810202
0.61431289 -0.10165063 1.0802244
0.61123365 -0.10152068 1.0794308
0.60816342 -0.10139111 1.0786396
0.60510218 -0.10126192 1.0778508
0.60204971 -0.1011331 1.0770642
0.59900618 -0.10100467 1.0762799
0.59288412 -0.10270271 1.074656
0.58986735 -0.10257258 1.0738786
0.58685929 -0.10244281 1.0731035
0.58385986 -0.10231342 1.0723306
0.5808689 -0.10218439 1.0715599
0.5778867 -0.10205575 1.0707915
0.57188892 -0.10373352 1.0692003
0.56893265 -0.10360321 1.0684385
0.56598479 -0.10347327 1.067679
0.56339622 -0.10338069 1.0670116
0.56082273 -0.10328936 1.066348
0.55825424 -0.10319819 1.0656856
0.55569071 -0.10310721 1.0650246
0.55313206 -0.1030164 1.0643649
0.55057836 -0.10292576 1.0637064
0.54544675 -0.10466018 1.0623379
0.54290807 -0.10456824 1.0616833
0.54037416 -0.10447646 1.06103
0.53784519 -0.10438486 1.060378
0.535321 -0.10429344 1.0597271
0.53280163 -0.10420219 1.0590775
0.53028721 -0.10411113 1.0584291
0.52777749 -0.10402023 1.0577821
0.52527261 -0.10392951 1.0571362
0.52024013 -0.10564532 1.0557938
0.51774973 -0.10555331 1.0551517
0.51526397 -0.10546149 1.0545108
0.51278299 -0.10536981 1.0538712
0.51030678 -0.10527834 1.0532327
0.50783515 -0.10518702 1.0525955
0.50544471 -0.10510475 1.0519791
0.50333178 -0.10505448 1.0514336
0.50122088 -0.10500424 1.0508887
0.49488118 -0.10673735 1.0492078
0.49277815 -0.10668642 1.0486649
0.49067706 -0.10663553 1.0481225
0.48857799 -0.10658471 1.0475807
0.47933361 -0.11654555 1.0449543
0.47950712 -0.11850489 1.044953
0.47968072 -0.12046512 1.0449516
0.4726795 -0.12163659 1.0431128
0.46561325 -0.1208589 1.0413032
0.45881844 -0.12201016 1.0395181
0.45212188 -0.12314474 1.0377591
0.44914949 -0.12294988 1.0369947
0.44663921 -0.12282466 1.0363482
0.44413447 -0.12269973 1.0357032
0.44163528 -0.12257505 1.0350596
0.43914169 -0.12245067 1.0344174
0.43665367 -0.12232658 1.0337768
0.43176803 -0.12395223 1.0324745
0.4292962 -0.12382687 1.0318379
0.42682984 -0.12370179 1.0312029
0.42436886 -0.12357695 1.0305692
0.42191339 -0.12345242 1.0299369
0.4194634 -0.12332817 1.0293061
0.41701868 -0.12320416 1.0286765
0.41221684 -0.12481385 1.0273963
0.40978801 -0.12468862 1.0267709
0.40736443 -0.12456367 1.0261469
0.40528581 -0.12449517 1.0256108
0.40363586 -0.12449748 1.0251839
0.40198553 -0.12449981 1.0247569
0.40033478 -0.12450211 1.0243298
0.39868364 -0.12450442 1.0239027
0.39703214 -0.12450675 1.0234753
0.39538014 -0.12450906 1.0230479
0.39372775 -0.12451138 1.0226203
0.392075 -0.12451369 1.0221927
0.39042181 -0.12451602 1.021765
0.38876823 -0.12451833 1.0213372
0.38711417 -0.12452065 1.0209092
0.38545978 -0.12452296 1.0204812
0.38380501 -0.12452529 1.020053
0.38214973 -0.12452761 1.0196248
0.38049412 -0.12452994 1.0191964
0.37883803 -0.12453225 1.018768
0.37394041 -0.12639657 1.017457
0.37228256 -0.12639913 1.0170281
0.37062424 -0.12640168 1.0165989
0.36896563 -0.12640424 1.0161698
0.36730653 -0.12640679 1.0157405
0.36564705 -0.12640935 1.0153112
0.36398712 -0.1264119 1.0148817
0.36232683 -0.12641446 1.0144521
0.3611328 -0.12650166 1.0141412
0.3599785 -0.12659664 1.0138403
0.35882184 -0.1266918 1.0135388
0.35766286 -0.12678716 1.0132368
0.35650161 -0.1268827 1.0129341
0.35533801 -0.12697844 1.0126308
0.35417208 -0.12707436 1.012327
0.35300377 -0.12717047 1.0120225
0.35183313 -0.12726676 1.0117173
0.34585038 -0.12586173 1.0102028
0.34466571 -0.1259573 1.009894
0.3434785 -0.12605304 1.0095847
0.342289 -0.12614898 1.0092747
0.34109718 -0.12624514 1.0089641
0.33990276 -0.12634146 1.0086528
0.33870608 -0.12643801 1.008341
0.33750683 -0.12653472 1.0080285
0.33495802 -0.12700453 1.007358
0.32955638 -0.1279881 1.0059375
0.32556337 -0.12815636 1.0049005
0.32480341 -0.12821838 1.0047024
0.32253742 -0.12721127 1.0041399
0.32237896 -0.12520939 1.0041462
0.32222074 -0.12320857 1.0041524
0.32206249 -0.12120885 1.0041587
0.32190442 -0.11921021 1.0041649
0.32174641 -0.11721263 1.0041711
0.32158849 -0.11521613 1.0041775
0.32141817 -0.11352276 1.0041733
0.32083091 -0.1114499 1.0040703
0.3205795 -0.10943613 1.0040528
0.32042164 -0.10743903 1.004059
0.32026389 -0.10544304 1.0040653
0.32010618 -0.10344812 1.0040716
0.31994867 -0.10145427 1.0040778
0.31979117 -0.099461481 1.0040841
0.31963372 -0.097469769 1.0040903
0.31892237 -0.093674026 1.0039959
0.31862164 -0.091661341 1.0039655
0.31846431 -0.089669064 1.0039718
0.31830716 -0.087677866 1.0039781
0.31815001 -0.085687727 1.0039845
0.31799296 -0.083698682 1.0039908
0.31783593 -0.081710689 1.003997
0.31767911 -0.079723775 1.0040033
0.31701353 -0.075895205 1.0039214
0.31666386 -0.073886901 1.0038784
0.31650701 -0.071899429 1.0038847
0.3163504 -0.069913037 1.003891
0.31619376 -0.067927703 1.0038973
0.31603724 -0.065943457 1.0039036
0.31588075 -0.063960247 1.0039099
0.31572446 -0.061978109 1.0039163
0.31556809 -0.059997059 1.0039226
0.31510431 -0.058113463 1.003847
0.31470609 -0.056112811 1.0037911
0.31454977 -0.054130144 1.0037975
0.31439367 -0.052148551 1.0038038
0.31423756 -0.050168023 1.0038102
0.31408155 -0.04818856 1.0038165
0.31392568 -0.046210155 1.0038228
0.31376979 -0.044232816 1.0038291
0.31361407 -0.042256542 1.0038356
0.31319481 -0.040328786 1.0037725
0.31274837 -0.038339078 1.003704
0.31259263 -0.036361225 1.0037104
0.31243703 -0.034384429 1.0037167
0.31228137 -0.032408692 1.003723
0.31212595 -0.030434025 1.0037295
0.31197056 -0.028460419 1.0037358
0.31181526 -0.026487874 1.0037421
0.31166005 -0.024516387 1.0037485
0.31128496 -0.022541167 1.003698
0.31079066 -0.020565702 1.0036168
0.31063548 -0.018592646 1.0036231
0.31048033 -0.016620653 1.0036296
0.31032532 -0.014649721 1.003636
0.31017035 -0.01267984 1.0036423
0.31001556 -0.010711031 1.0036488
0.30986074 -0.0087432731 1.0036551
0.30970603 -0.0067765769 1.0036615
0.30937487 -0.004750615 1.0036236
0.30883306 -0.0027926713 1.0035295
0.30867833 -0.00082441792 1.003536
0.30852371 0.0011427701 1.0035424
0.30836928 0.0031089112 1.0035489
0.30821487 0.0050739888 1.0035553
0.3080605 0.0070380066 1.0035616
0.3079063 0.0090009738 1.0035681
0.30775207 0.010962884 1.0035745
0.30746439 0.013042873 1.0035491
0.30689216 0.014981126 1.0034468
0.30672127 0.016943453 1.0034488
0.30656725 0.018905852 1.0034553
0.30647096 0.020871678 1.0034767
0.30650577 0.022847567 1.0035324
0.30654055 0.024823792 1.003588
0.30657533 0.026800364 1.0036436
0.30661014 0.028777283 1.0036993
0.30664498 0.030754548 1.0037549
0.30667979 0.032732144 1.0038105
0.30671459 0.034710098 1.0038662
0.30674946 0.036688387 1.0039219
0.30678421 0.038667019 1.0039775
0.30681902 0.040645994 1.0040332
0.30685395 0.042625323 1.004089
0.30688876 0.044604987 1.0041447
0.30692357 0.046584997 1.0042003
0.30695847 0.04856535 1.0042561
0.30699334 0.05054605 1.0043119
0.30707499 0.052533526 1.0043799
0.30718154 0.054525204 1.0044545
0.30728817 0.056517772 1.004529
0.30739483 0.058511212 1.0046036
0.30750155 0.060505554 1.0046782
0.30760831 0.062500775 1.004753
0.30771518 0.064496897 1.0048277
0.30782884 0.066181555 1.0048969
0.30782199 0.066493884 1.0049025
0.30786374 0.068160504 1.0049525
0.30789864 0.070139825 1.0050083
0.30793351 0.07211946 1.005064
0.30796838 0.074099451 1.0051197
0.30800331 0.076079786 1.0051755
0.30803826 0.078060456 1.0052313
0.30807319 0.080041476 1.0052871
0.30810809 0.082022838 1.0053427
0.30814302 0.084004544 1.0053985
0.30817798 0.085986607 1.0054543
0.30821288 0.087969005 1.0055101
0.30824789 0.089951754 1.005566
0.30828285 0.091934837 1.0056218
0.30831775 0.093918264 1.0056776
0.30835277 0.095902048 1.0057335
0.3083877 0.097886175 1.0057893
0.30842271 0.09987063 1.0058452
0.3084577 0.10185544 1.0059011
0.30849266 0.1038406 1.0059569
0.30852768 0.1058261 1.0060128
0.30856267 0.10781195 1.0060687
0.30859771 0.10979815 1.0061246
0.30863273 0.11178468 1.0061805
0.30866772 0.11377157 1.0062364
0.30870277 0.11575879 1.0062925
0.30873778 0.11774637 1.0063484
0.30877286 0.11973429 1.0064043
0.30880791 0.12172256 1.0064603
0.30884296 0.12371117 1.0065162
0.308878 0.12570013 1.0065722
0.30891302 0.12768942 1.0066283
0.30894813 0.12967908 1.0066843
0.30898318 0.13166907 1.0067403
0.30901828 0.13365942 1.0067964
0.30905339 0.13565013 1.0068524
0.3090885 0.13764116 1.0069084
0.30912361 0.13963255 1.0069644
0.30915868 0.14162427 1.0070205
0.30919373 0.14361635 1.0070766
0.30922896 0.14560878 1.0071326
0.30926406 0.14760154 1.0071888
0.30929917 0.14959466 1.0072448
0.30933431 0.15158813 1.007301
0.3093695 0.15358196 1.0073571
0.30940464 0.15557612 1.0074133
0.30943978 0.15757063 1.0074694
0.30950683 0.15957627 1.007534
0.30961418 0.16159619 1.0076095
0.30972159 0.16361706 1.0076849
0.30982903 0.1656388 1.0077604
0.30993661 0.16766149 1.007836
0.31020257 0.16907056 1.007938
0.31187683 0.16963847 1.0083845
0.31406057 0.16973017 1.0089517
0.31669638 0.16937701 1.0096252
0.31885451 0.16946405 1.0101855
0.32007539 0.16925693 1.0104965
0.32618198 0.1701355 1.012097
0.32738787 0.16992892 1.0124041
0.32859135 0.16972278 1.0127105
0.32979229 0.16951706 1.0130163
0.33580098 0.17038727 1.0145913
0.33698732 0.17018208 1.0148933
0.3381713 0.16997735 1.0151948
0.34409618 0.17083913 1.016748
0.34526592 0.17063497 1.0170457
0.34643325 0.1704312 1.0173429
0.34759817 0.17022783 1.0176394
0.34876078 0.17002487 1.0179354
0.35016975 0.16990478 1.0182971
0.35183045 0.16986857 1.0187259
0.35349068 0.16983236 1.0191544
0.35515046 0.16979617 1.019583
0.35680988 0.16976002 1.0200114
0.36185136 0.1715284 1.0213574
0.36350906 0.17149197 1.0217854
0.36516643 0.17145558 1.0222132
0.36682335 0.17141922 1.0226411
0.36847973 0.17138283 1.0230687
0.37013572 0.17134649 1.0234963
0.37179133 0.17131016 1.0239236
0.3734464 0.1712738 1.024351
0.37510103 0.17123747 1.0247781
0.37675527 0.17120115 1.0252053
0.37840909 0.17116484 1.0256323
0.38006234 0.17112853 1.026059
0.38171521 0.17109224 1.0264858
0.38336769 0.17105597 1.0269125
0.38501972 0.17101972 1.027339
0.38667125 0.17098345 1.0277654
0.38832232 0.17094718 1.0281916
0.39342701 0.17273724 1.0295544
0.39811063 0.17124043 1.0307307
0.40052813 0.1714392 1.0313609
0.40295094 0.1716384 1.0319923
0.40537906 0.17183803 1.0326252
0.40781248 0.17203811 1.0332594
0.41025126 0.17223863 1.033895
0.41269532 0.17243956 1.0345321
0.4151448 0.17264093 1.0351704
0.41759971 0.17284279 1.0358104
0.42006007 0.17304508 1.0364516
0.42252573 0.1732478 1.0370942
0.42499688 0.17345099 1.0377383
0.42747363 0.17365463 1.0383838
0.42995569 0.17385869 1.0390308
0.43244335 0.17406322 1.0396791
0.43493646 0.1742682 1.0403289
0.43743506 0.17447361 1.0409801
0.44172257 0.17330909 1.0420618
0.44856924 0.17477079 1.0438675
0.45485511 0.1741406 1.0454788
0.46122509 0.17350189 1.0471116
0.46836883 0.1749962 1.0489949
0.47352704 0.17004742 1.0502126
0.48274592 0.15985969 1.0523572
0.48485053 0.15993297 1.0529034
0.48695701 0.16000631 1.0534501
0.48906559 0.16007973 1.0539973
0.49117613 0.16015324 1.054545
0.49328861 0.16022679 1.0550932
0.49556381 0.16034083 1.0556844
0.49802935 0.16050191 1.0563262
0.50049978 0.16066335 1.056969
0.50297487 0.16082507 1.0576131
0.5054546 0.16098712 1.0582584
0.50793916 0.16114947 1.058905
0.51042843 0.16131213 1.0595528
0.51292241 0.16147511 1.0602019
0.51542133 0.16163839 1.0608522
0.51792496 0.16180199 1.0615038
0.52043343 0.16196592 1.0621566
0.52294672 0.16213016 1.0628105
0.52546471 0.1622947 1.0634658
0.52798772 0.16245957 1.0641224
0.53051549 0.16262475 1.0647802
0.53304809 0.16279022 1.0654393
0.5355857 0.16295606 1.0660998
0.53812814 0.16312219 1.0667614
0.54067552 0.16328865 1.0674243
0.54322767 0.16345541 1.0680885
0.54578501 0.16362253 1.068754
0.54834723 0.16378996 1.0694208
0.55091447 0.16395772 1.0700889
0.55348659 0.16412579 1.0707582
0.55630696 0.16435179 1.0714931
0.55925149 0.16460599 1.072261
0.56510735 0.16314957 1.0737414
0.56807709 0.16340311 1.0745157
0.57105541 0.16365741 1.0752922
0.5740422 0.16391242 1.0760709
0.57703793 0.16416819 1.0768518
0.58004218 0.16442469 1.0776352
0.58305514 0.16468193 1.0784206
0.58607686 0.16493991 1.0792085
0.58910739 0.16519865 1.0799985
0.59214681 0.16545816 1.080791
0.59519511 0.16571841 1.0815856
0.5982523 0.16597943 1.0823827
0.60131842 0.16624121 1.0831821
0.6043936 0.16650377 1.0839839
0.61050701 0.16502072 1.0855304
0.61360908 0.16528264 1.086339
0.61678517 0.16555968 1.0871673
0.62023556 0.16589591 1.0880678
0.62369865 0.16623338 1.0889716
0.62717479 0.16657211 1.0898789
0.63066399 0.16691211 1.0907896
0.63416648 0.16725342 1.0917037
0.63768196 0.167596 1.0926212
0.64121091 0.1679399 1.0935422
0.64822328 0.16657701 1.0953242
0.65179193 0.16692086 1.0962555
0.65537423 0.16726604 1.0971904
0.65897018 0.16761254 1.0981288
0.66257977 0.16796033 1.0990708
0.66620326 0.16830947 1.1000164
0.66611505 0.16623558 1.0999447
0.66602659 0.16416207 1.0998728
0.66593832 0.16208908 1.0998012
0.66585004 0.16001654 1.0997294
0.66576189 0.15794447 1.0996578
0.66567373 0.15587287 1.099586
0.66558558 0.15380172 1.0995144
0.66549736 0.15173104 1.0994427
0.66540927 0.14966086 1.0993711
0.66532117 0.1475911 1.0992994
0.66523302 0.14552182 1.0992279
0.66514504 0.14345302 1.0991563
0.66505694 0.14138468 1.0990847
0.67483115 0.13053839 1.1013575
0.67794687 0.13070452 1.1021674
0.68407404 0.13285239 1.1038032
0.6860112 0.13282052 1.1043035
0.68794787 0.13278866 1.1048038
0.68988407 0.1327568 1.1053039
0.69162709 0.13269274 1.1057533
0.69286132 0.13254401 1.1060691
0.69409323 0.13239554 1.1063843
0.70007944 0.13380879 1.1079663
0.70052797 0.1335317 1.1080757
0.70097512 0.1332556 1.1081849
0.70142061 0.13298042 1.1082937
0.70186472 0.13270622 1.108402
0.70230711 0.13243291 1.10851
0.70854062 0.13014254 1.1100687
0.70719576 0.13005027 1.1097186
0.70570827 0.13002793 1.1093332
0.70440799 0.12993783 1.1089947
0.70288002 0.12991346 1.1085988
0.70005864 0.1297995 1.1078663
0.69781053 0.12977836 1.1072842
0.69658518 0.12992413 1.1069707
0.6922344 0.12941459 1.1058331
0.68794882 0.1305991 1.1047524
0.68601215 0.13063069 1.1042521
0.68407512 0.13066228 1.1037518
0.67859071 0.12897299 1.1022931
0.67512608 0.12869143 1.1013901
0.67246652 0.12858434 1.1006997
0.6698103 0.12847728 1.1000099
0.66715199 0.12836932 1.0993197
0.66517639 0.12832281 1.0988075
0.66450953 0.12826347 1.0986335
0.66249675 0.12821496 1.0981117
0.66187131 0.12815782 1.0979486
0.65982682 0.12810819 1.0974185
0.65923715 0.12805231 1.0972646
0.65716171 0.12800166 1.0967265
0.65660715 0.12794696 1.0965818
0.65450066 0.12789533 1.0960356
0.65398133 0.12784179 1.0959001
0.65233427 0.12784165 1.0954739
0.65184247 0.12778887 1.0953455
0.6513598 0.12773679 1.0952194
0.6496377 0.12773305 1.0947738
0.64918458 0.12768196 1.0946554
0.64873999 0.12763157 1.0945392
0.64694548 0.12762462 1.0940747
0.64653099 0.12757517 1.0939664
0.64612317 0.12752634 1.0938597
0.64388156 0.12746862 1.0932784
0.64351052 0.12742124 1.0931814
0.64313871 0.12737334 1.093084
0.64090198 0.12731633 1.092504
0.6405676 0.12727019 1.0924164
0.63829756 0.12721159 1.0918279
0.63800049 0.1271672 1.0917499
0.63569736 0.12710702 1.0911527
0.63543749 0.12706441 1.0910845
0.6328783 0.12696171 1.09042
0.63032323 0.12685923 1.0897566
0.62777197 0.12675688 1.0890942
0.62522292 0.12665437 1.0884323
0.62267774 0.12655203 1.0877714
0.62013638 0.12644982 1.0871116
0.61759925 0.12634782 1.0864528
0.61506426 0.12624568 1.0857947
0.61253345 0.12614371 1.0851375
0.61000651 0.1260419 1.0844814
0.60748351 0.12594026 1.0838263
0.60496444 0.12583879 1.0831722
0.60244906 0.12573746 1.0825192
0.59993774 0.12563628 1.0818671
0.59743023 0.12553526 1.081216
0.5971669 0.12555571 1.0811484
0.5949266 0.1254344 1.0805659
0.59462959 0.12545346 1.0804895
0.59242672 0.12533368 1.0799168
0.59209621 0.12535137 1.0798318
0.58993083 0.12523314 1.0792688
0.58956683 0.12524946 1.079175
0.5874387 0.12513274 1.0786217
0.58704132 0.12514769 1.0785193
0.58495045 0.1250325 1.0779756
0.5845198 0.12504609 1.0778646
0.58246601 0.12493241 1.0773306
0.58200216 0.12494462 1.0772109
0.5815267 0.12495735 1.0770882
0.5799852 0.12483246 1.0766865
0.5794884 0.12484333 1.0765582
0.57750839 0.12473269 1.0760434
0.57697874 0.12474222 1.0759065
0.57584107 0.12467189 1.0756106
0.57503527 0.12463304 1.0754012
0.57447278 0.12464124 1.0752559
0.57314575 0.12452693 1.0749099
0.57256591 0.12453359 1.0747601
0.57071197 0.12442891 1.074278
0.57010043 0.12443425 1.0741199
0.56828183 0.12433103 1.073647
0.56763875 0.1243351 1.0734807
0.56585538 0.1242333 1.073017
0.56518155 0.12423623 1.0728427
0.56343263 0.12413573 1.0723879
0.56273091 0.12413803 1.0722065
0.56101352 0.12403829 1.0717598
0.56028402 0.12403998 1.0715711
0.55859804 0.12394102 1.0711327
0.55783933 0.12394181 1.0709363
0.55618817 0.12384424 1.0705069
0.55539638 0.1238434 1.070302
0.55378014 0.12374729 1.0698817
0.55295712 0.12374517 1.0696688
0.55137563 0.12365048 1.0692574
0.55052155 0.12364709 1.0690364
0.54897463 0.12355379 1.0686339
0.54808974 0.12354915 1.0684049
0.54657733 0.12345726 1.0680115
0.54566163 0.12345136 1.0677744
0.54418373 0.12336089 1.06739
0.54323709 0.1233537 1.067145
0.54179353 0.12326464 1.0667694
0.54081631 0.12325621 1.0665164
0.53940701 0.12316855 1.0661497
0.53839916 0.12315886 1.0658888
0.53702396 0.12307261 1.065531
0.53598559 0.12306165 1.0652621
0.53464448 0.12297679 1.0649132
0.53357571 0.12296459 1.0646363
0.53226858 0.12288114 1.0642962
0.53116953 0.12286769 1.0640116
0.52989614 0.12278561 1.0636803
0.52876693 0.12277093 1.0633878
0.52752727 0.12269022 1.0630652
0.52636796 0.12267432 1.0627649
0.52516198 0.12259499 1.0624511
0.52397257 0.12257784 1.062143
0.52280009 0.12249988 1.0618378
0.52158082 0.12248152 1.061522
0.52044177 0.12240492 1.0612255
0.51919258 0.12238533 1.0609019
0.51808691 0.1223101 1.060614
0.51680797 0.12228928 1.0602827
0.51573563 0.12221544 1.0600035
0.51442689 0.12219338 1.0596645
0.51338774 0.12212089 1.0593939
0.5120495 0.12209764 1.0590472
0.51104331 0.1220265 1.0587852
0.50967604 0.1220021 1.0584309
0.50870234 0.12193224 1.0581774
0.50730616 0.12190674 1.0578156
0.50636488 0.12183812 1.0575705
0.50493997 0.12181152 1.0572011
0.50403082 0.12174415 1.0569644
0.50257719 0.12171646 1.0565877
0.50170016 0.12165029 1.0563593
0.50021887 0.12162169 1.0559754
0.49937353 0.12155668 1.0557551
0.49786398 0.12152705 1.055364
0.4970507 0.1214633 1.0551521
0.49551269 0.12143259 1.0547534
0.49473178 0.12137014 1.0545499
0.4931649 0.12133826 1.0541439
0.49241626 0.12127713 1.0539488
0.49082065 0.12124407 1.0535352
0.49010423 0.12118427 1.0533484
0.48847985 0.12115002 1.0529274
0.48779547 0.12109153 1.052749
0.47960585 0.10518035 1.0502551
0.47890514 0.1031042 1.0500247
0.47820586 0.10103229 1.049795
0.48129693 0.089525588 1.0503232
0.48059469 0.087465949 1.0500929
0.47989386 0.085410498 1.0498632
0.48298687 0.073880948 1.0503913
0.48228323 0.071837805 1.0501611
0.48158085 0.069798797 1.0499313
0.48467574 0.058246404 1.0504595
0.48397055 0.056219731 1.0502292
0.4832668 0.054197147 1.0499995
0.48636356 0.042621955 1.0505276
0.48565686 0.040611725 1.0502973
0.48495165 0.038605563 1.0500675
0.48424774 0.036603428 1.0498382
0.48354536 0.034605347 1.0496094
0.48284435 0.032611277 1.049381
0.48214477 0.030621227 1.0491531
0.48144656 0.02863517 1.0489256
0.48112541 0.0247436 1.0487506
0.48129892 0.022819716 1.0487502
0.48147249 0.020894943 1.0487497
0.48164618 0.018969281 1.0487492
0.48181996 0.017042736 1.0487487
0.48199373 0.015115295 1.0487483
0.48216772 0.013186972 1.0487478
0.48234171 0.011257752 1.0487472
0.48251575 0.0093276482 1.0487467
0.48268989 0.0073966477 1.0487462
0.48286417 0.0054647569 1.0487458
0.48303851 0.0035319738 1.0487453
0.48321289 0.0015983004 1.0487447
0.48338741 -0.00033626519 1.0487442
0.48356187 -0.002271736 1.0487437
0.48373657 -0.0042080898 1.0487432
0.48391131 -0.006145345 1.0487428
0.48408604 -0.0080834944 1.0487423
0.48426098 -0.010022538 1.0487418
0.48443595 -0.01196249 1.0487412
0.48461097 -0.013903329 1.0487407
0.48478612 -0.015845077 1.0487403
0.48496133 -0.017787712 1.0487398
0.48513663 -0.019731252 1.0487393
0.48531199 -0.021675693 1.0487387
0.4854874 -0.023621036 1.0487382
0.48566294 -0.025567276 1.0487378
0.48583853 -0.027514422 1.0487373
0.48601425 -0.029462466 1.0487367
0.48619008 -0.031411424 1.0487362
0.48636588 -0.033361278 1.0487357
0.48654178 -0.035312042 1.0487353
0.48671776 -0.037263706 1.0487347
0.48689395 -0.03921628 1.0487342
0.48707014 -0.041169755 1.0487337
0.48066255 -0.050704859 1.0468512
0.48083615 -0.052648664 1.0468502
0.48100978 -0.054593369 1.0468493
0.48118365 -0.056538977 1.0468484
0.49109459 -0.066226922 1.0491837
0.49213317 -0.066188373 1.0494534
0.49316958 -0.06614992 1.0497224
0.49420375 -0.06611155 1.0499908
0.49523556 -0.066073254 1.0502586
0.49626529 -0.06603504 1.0505259
0.49729276 -0.065996915 1.0507927
0.49831799 -0.06595888 1.0510588
0.49934107 -0.065920912 1.0513244
0.50036192 -0.06588304 1.0515894
0.50138056 -0.065845236 1.0518538
0.50239706 -0.065807506 1.0521176
0.50341135 -0.065769874 1.0523809
0.50441545 -0.065627731 1.052644
0.50547206 -0.065588631 1.0529182
0.50652641 -0.065549634 1.0531919
0.50757837 -0.065510713 1.053465
0.50862801 -0.065471873 1.0537374
0.50967532 -0.06543313 1.0540093
0.51072025 -0.065394484 1.0542805
0.51176286 -0.065355889 1.0545511
0.5128032 -0.065317415 1.0548211
0.51384127 -0.065279007 1.0550907
0.51487702 -0.065240681 1.0553595
0.51591057 -0.065202452 1.0556277
0.51694196 -0.06516432 1.0558954
0.51797104 -0.06512627 1.0561626
0.51899797 -0.065088309 1.0564291
0.52002251 -0.065050431 1.0566951
0.52104485 -0.065012619 1.0569605
0.52206498 -0.064974897 1.0572252
0.5239594 -0.064791977 1.0577197
0.52502197 -0.064752787 1.0579954
0.52608228 -0.064713702 1.0582707
0.5271402 -0.064674713 1.0585452
0.5281958 -0.064635821 1.0588193
0.52924901 -0.064597003 1.0590926
0.53029966 -0.064558275 1.0593654
0.53134805 -0.064519644 1.0596375
0.53239411 -0.064481109 1.059909
0.53343773 -0.064442635 1.0601799
0.53447896 -0.064404272 1.0604502
0.53551775 -0.06436599 1.0607198
0.53655434 -0.064327799 1.0609889
0.5375886 -0.064289682 1.0612574
0.53862035 -0.064251646 1.0615251
0.5396499 -0.064213701 1.0617924
0.54067707 -0.064175852 1.062059
0.54170156 -0.064138055 1.0623249
0.54272288 -0.064100303 1.06259
0.5445838 -0.063910209 1.0630759
0.54565161 -0.063871011 1.0633531
0.54671705 -0.063831888 1.0636296
0.54777992 -0.063792862 1.0639055
0.54884017 -0.063753925 1.0641807
0.54989803 -0.063715085 1.0644553
0.55095333 -0.063676335 1.0647292
0.55200624 -0.063637681 1.0650026
0.55305672 -0.063599102 1.0652752
0.55410475 -0.06356062 1.0655472
0.55515027 -0.063522242 1.0658185
0.55619341 -0.063483939 1.0660894
0.55723411 -0.063445725 1.0663595
0.55827236 -0.063407592 1.0666289
0.55930817 -0.063369565 1.0668979
0.56034106 -0.063331582 1.067166
0.56137079 -0.063293651 1.0674332
0.56239814 -0.063255809 1.0676999
0.5634231 -0.063218057 1.067966
0.56444567 -0.063180387 1.0682313
0.56546599 -0.063142806 1.0684962
0.56648374 -0.063105315 1.0687604
0.5674994 -0.063067898 1.069024
0.56851262 -0.063030578 1.0692869
0.56952339 -0.06299334 1.0695493
0.57053208 -0.062956192 1.0698112
0.57153821 -0.062919125 1.0700723
0.57254225 -0.062882148 1.070333
0.57354349 -0.062845215 1.0705929
0.57454216 -0.06280838 1.070852
0.57553864 -0.062771603 1.0711107
0.57653284 -0.062734932 1.0713688
0.57802713 -0.062552482 1.0717597
0.57907087 -0.06251432 1.0720305
0.58011121 -0.062476195 1.0723006
0.58114809 -0.062438123 1.0725697
0.58218229 -0.06240011 1.0728382
0.58321398 -0.062362202 1.0731059
0.58424324 -0.062324375 1.0733731
0.58527005 -0.062286645 1.0736396
0.58629441 -0.062249012 1.0739056
0.58731627 -0.062211454 1.0741708
0.58833587 -0.062173992 1.0744355
0.58935285 -0.062136613 1.0746994
0.59036756 -0.062099315 1.0749627
0.59137976 -0.062062122 1.0752255
0.5923897 -0.062025018 1.0754876
0.59339732 -0.061987996 1.0757492
0.59440231 -0.061951056 1.0760101
0.59540516 -0.061914206 1.0762703
0.59640563 -0.061877444 1.0765301
0.59740365 -0.061840773 1.0767891
0.59839946 -0.061804183 1.0770476
0.59939277 -0.061767675 1.0773054
0.60038394 -0.061731257 1.0775627
0.60137451 -0.061695009 1.0778198
0.6023646 -0.061658941 1.0780767
0.60335219 -0.061622947 1.0783331
0.60433757 -0.061587036 1.0785888
0.60532063 -0.061551213 1.0788441
0.60630149 -0.061515473 1.0790986
0.6072799 -0.061479807 1.0793526
0.60825628 -0.061444223 1.0796061
0.60923034 -0.061408736 1.0798588
0.61020207 -0.061373323 1.080111
0.6111716 -0.061337993 1.0803627
0.61213893 -0.061302729 1.0806137
0.61310393 -0.061267562 1.0808642
0.6140669 -0.06123247 1.0811142
0.61502755 -0.06119746 1.0813636
0.61598599 -0.061162524 1.0816123
0.61749697 -0.060967378 1.0820078
0.61850005 -0.060930692 1.0822681
0.6195032 -0.060894199 1.0825285
0.62050521 -0.06085784 1.0827886
0.62150466 -0.06082157 1.083048
0.62250167 -0.06078539 1.0833068
0.62349635 -0.0607493 1.083565
0.62448859 -0.060713291 1.0838225
0.62547851 -0.060677372 1.0840794
0.62646604 -0.060641542 1.0843357
0.62745124 -0.060605787 1.0845914
0.62843406 -0.060570128 1.0848465
0.62941462 -0.060534544 1.085101
0.63039267 -0.060499042 1.0853549
0.63136858 -0.06046363 1.0856082
0.63234204 -0.060428314 1.0858608
0.63331324 -0.06039305 1.086113
0.63428223 -0.060357906 1.0863645
0.63524896 -0.060322821 1.0866153
0.6362133 -0.060287826 1.0868657
0.63717538 -0.060252912 1.0871154
0.63813525 -0.060218088 1.0873646
0.63909447 -0.060183421 1.0876135
0.64004201 -0.060148388 1.0878594
0.64099014 -0.060113572 1.0881056
0.64193606 -0.060078837 1.088351
0.64287966 -0.060044192 1.088596
0.64382118 -0.060009629 1.0888404
0.64476043 -0.059975132 1.0890841
0.64569736 -0.059940726 1.0893273
0.64663482 -0.059906512 1.0895706
0.64757013 -0.059872404 1.0898135
0.64850318 -0.059838347 1.0900556
0.64943409 -0.059804372 1.0902972
0.65036303 -0.059770487 1.0905384
0.65128958 -0.059736677 1.0907788
0.65221411 -0.059702955 1.0910188
0.65313637 -0.059669293 1.0912582
0.65405661 -0.059635706 1.0914971
0.65497476 -0.059602208 1.0917354
0.65589106 -0.059568807 1.0919732
0.65680575 -0.059535496 1.0922107
0.6577183 -0.059502266 1.0924475
0.65863276 -0.05946929 1.0926849
0.65954596 -0.059436418 1.0929219
0.6604569 -0.059403621 1.0931582
0.66136575 -0.059370883 1.0933942
0.66227257 -0.059338234 1.0936296
0.65609765 -0.069197148 1.0917995
0.65601146 -0.071218036 1.0917295
0.65592527 -0.073238485 1.0916597
0.6558392 -0.075258486 1.0915897
0.65575308 -0.077278033 1.0915198
0.65566719 -0.07929714 1.09145
0.65558118 -0.081315808 1.0913801
0.65549529 -0.083334021 1.0913103
0.65540946 -0.085351802 1.0912404
0.65532351 -0.087369129 1.0911707
0.65523756 -0.089385979 1.0911008
0.65515178 -0.091402411 1.0910311
0.65506589 -0.093418382 1.0909612
0.6549803 -0.095433936 1.0908916
0.65489429 -0.097448997 1.0908217
0.65480852 -0.099463649 1.0907521
0.65125889 -0.099303111 1.0898376
