# .PCD v0.7 - Point Cloud Data file format
VERSION 0.7
FIELDS x y z
SIZE 4 4 4
TYPE F F F
COUNT 1 1 1
WIDTH 108
HEIGHT 1
VIEWPOINT 0 0 0 1 0 0 0
POINTS 108
DATA ascii
0.23970543 0.35911995 0.89769125
0.23491642 0.3626107 0.89721304
0.22697616 0.36833489 0.89784229
0.22292268 0.371324 0.89666504
0.2198444 0.37348491 0.89821231
0.21699363 0.3752 0.90604794
0.21603034 0.37553155 0.91424477
0.2123214 0.3777546 0.92462516
0.20561565 0.38249314 0.92729765
0.20227809 0.3849299 0.92687494
0.19857626 0.38752967 0.9287101
0.19551763 0.38958943 0.93220222
0.18908173 0.39405358 0.93663979
0.18276548 0.39852014 0.93908417
0.17429934 0.4042722 0.94761485
0.17000103 0.40730616 0.94940311
0.16875468 0.40815806 0.95054519
0.16445351 0.41101715 0.95629346
0.15675108 0.41616428 0.9659794
0.15003502 0.42062992 0.97492617
0.14719093 0.42262977 0.97628051
0.14015773 0.42720652 0.98788196
0.13790068 0.42853588 0.99472356
0.13471393 0.430713 0.99766666
0.12742031 0.43556359 1.0073619
0.12018225 0.44042283 1.0159626
0.11793892 0.44191748 1.0188835
0.11498444 0.44374004 1.0259949
0.10886145 0.44772264 1.0361357
0.10192334 0.45231321 1.0458858
0.09996143 0.45366019 1.0475494
0.098151542 0.45462173 1.0553733
0.090669394 0.45958316 1.0656438
0.088692337 0.46082982 1.0697973
0.087007761 0.46175182 1.0764748
0.080459245 0.46599519 1.0876784
0.078280702 0.46723247 1.0953084
0.083233193 0.46373236 1.0933455
0.086091883 0.46166712 1.0932175
0.091613226 0.45771793 1.0920826
0.099034175 0.45221138 1.0950025
0.10786302 0.44582629 1.0947573
0.11294848 0.44211709 1.0953186
0.11922779 0.43757334 1.0952003
0.12497707 0.43315375 1.1008968
0.13117093 0.4286845 1.1004966
0.13925356 0.42282736 1.1005346
0.14903662 0.41575682 1.1001595
0.15270001 0.413008 1.1022831
0.1584844 0.40883982 1.1017846
0.16305031 0.4055067 1.1023521
0.16967539 0.40073851 1.1016511
0.17727062 0.39519638 1.1025414
0.1753273 0.39689389 1.0960594
0.16904031 0.40155911 1.0935835
0.16354765 0.40597656 1.083775
0.16254997 0.4070881 1.0750749
0.1620073 0.40778172 1.0683509
0.15930927 0.4099263 1.0640992
0.15867259 0.41078034 1.0553095
0.15835892 0.41134691 1.0477155
0.15433529 0.41441682 1.044247
0.15299425 0.41579959 1.0350446
0.14756447 0.42021245 1.0243186
0.14825754 0.42010787 1.0154233
0.15142819 0.41820961 1.0065012
0.16182908 0.41083339 1.002951
0.17229484 0.4032585 1.0027944
0.17841066 0.39876381 1.0042289
0.18494664 0.39414203 1.0016965
0.191209 0.38958788 1.0020859
0.19416615 0.38738158 1.0035177
0.20241757 0.38133547 1.0050488
0.21348868 0.37336442 1.0039439
0.21909189 0.36920822 1.0061139
0.22452632 0.3653968 1.0033051
0.23098312 0.3606557 1.0047257
0.23739699 0.35604566 1.0039096
0.24507643 0.35009867 1.0124948
0.25250626 0.34479189 1.0108004
0.25990528 0.33948672 1.0095692
0.26933062 0.33248872 1.0133698
0.27672729 0.32718822 1.0120722
0.28410533 0.3218984 1.0108379
0.29253501 0.31576318 1.0114729
0.30215359 0.3087939 1.0114983
0.30756199 0.30477268 1.0138056
0.31323734 0.30111611 1.0036256
0.3192659 0.29707721 0.99627525
0.32179207 0.29582644 0.98331213
0.32214797 0.29591724 0.97551095
0.32636857 0.29334116 0.96473563
0.32703206 0.29336682 0.95340496
0.32585886 0.29453048 0.94638389
0.31965092 0.29902145 0.94652605
0.31493956 0.30248994 0.9452877
0.30959845 0.30628437 0.94696385
0.30198267 0.31175369 0.9480359
0.2979221 0.31477201 0.9463203
0.28971452 0.32117224 0.93615454
0.28344411 0.32614121 0.92661309
0.27643409 0.33164814 0.91702276
0.27266815 0.33449471 0.91437435
0.26747274 0.33852702 0.90836543
0.26106164 0.34321961 0.9072898
0.25565198 0.34719536 0.90601969
0.25040144 0.35131019 0.89905804
0.24377641 0.35618195 0.89744073
